0.0,0.08942284956312528,-0.0,0,0,0
0.014903808260520882,0.10432665782364618,0.0,0,0,0
0.014903808260520882,0.08942284956312528,-0.0,0,0,0
0.0,0.07451904130260441,-0.0,0,0,0
0.014903808260520882,0.07451904130260441,-0.014903808260520882,0,0,0
0.014903808260520882,0.08942284956312528,-0.014903808260520882,0,0,0
0.0,0.07451904130260441,-0.0,0,0,0
0.0,0.04471142478156264,0.0,0,0,0
0.0,0.07451904130260441,-0.014903808260520882,0,0,0
-0.014903808260520882,0.08942284956312528,0.014903808260520882,0,0,0
-0.014903808260520882,0.10432665782364618,0.0,0,0,0
-0.0,0.08942284956312528,-0.04471142478156264,0,0,0
0.014903808260520882,0.07451904130260441,-0.04471142478156264,0,0,0
0.029807616521041764,0.05961523304208353,-0.029807616521041764,0,0,0
0.014903808260520882,0.05961523304208353,-0.029807616521041764,0,0,0
0.014903808260520882,0.05961523304208353,-0.04471142478156264,0,0,0
0.029807616521041764,0.08942284956312528,-0.029807616521041764,0,0,0
0.014903808260520882,0.07451904130260441,-0.029807616521041764,0,0,0
0.0,0.08942284956312528,-0.014903808260520882,0,0,0
0.0,0.07451904130260441,-0.014903808260520882,0,0,0
0.014903808260520882,0.05961523304208353,-0.04471142478156264,0,0,0
0.014903808260520882,0.07451904130260441,-0.014903808260520882,0,0,0
0.0,0.08942284956312528,-0.029807616521041764,0,0,0
0.014903808260520882,0.08942284956312528,-0.029807616521041764,0,0,0
0.0,0.08942284956312528,-0.05961523304208353,0,0,0
0.0,0.07451904130260441,-0.05961523304208353,0,0,0
-0.0,0.07451904130260441,-0.04471142478156264,0,0,0
0.029807616521041764,0.07451904130260441,-0.05961523304208353,0,0,0
-0.0,0.08942284956312528,-0.014903808260520882,0,0,0
0.07451904130260441,0.05961523304208353,0.014903808260520882,0,0,0
-0.014903808260520882,0.08942284956312528,0.029807616521041764,0,0,0
0.04471142478156264,0.11923046608416706,-0.029807616521041764,0,0,0
0.04471142478156264,0.11923046608416706,-0.014903808260520882,0,0,0
-0.0,0.08942284956312528,-0.014903808260520882,0,0,0
-0.029807616521041764,0.05961523304208353,-0.014903808260520882,0,0,0
-0.04471142478156264,0.05961523304208353,-0.014903808260520882,0,0,0
-0.04471142478156264,0.07451904130260441,-0.029807616521041764,0,0,0
-0.04471142478156264,0.08942284956312528,-0.04471142478156264,0,0,0
-0.014903808260520882,0.08942284956312528,-0.04471142478156264,0,0,0
-0.0,0.08942284956312528,-0.04471142478156264,0,0,0
0.0,0.07451904130260441,-0.04471142478156264,0,0,0
0.014903808260520882,0.07451904130260441,-0.05961523304208353,0,0,0
0.029807616521041764,0.08942284956312528,-0.07451904130260441,0,0,0
0.04471142478156264,0.07451904130260441,-0.04471142478156264,0,0,0
0.029807616521041764,0.07451904130260441,-0.04471142478156264,0,0,0
0.029807616521041764,0.07451904130260441,-0.029807616521041764,0,0,0
0.014903808260520882,0.10432665782364618,-0.014903808260520882,0,0,0
0.029807616521041764,0.07451904130260441,-0.014903808260520882,0,0,0
0.04471142478156264,0.05961523304208353,-0.0,0,0,0
0.014903808260520882,0.08942284956312528,0.0,0,0,0
0.014903808260520882,0.08942284956312528,-0.014903808260520882,0,0,0
0.014903808260520882,0.05961523304208353,-0.04471142478156264,0,0,0
0.0,0.05961523304208353,-0.029807616521041764,0,0,0
0.014903808260520882,0.05961523304208353,-0.014903808260520882,0,0,0
0.0,0.029807616521041764,-0.014903808260520882,0,0,0
0.029807616521041764,0.014903808260520882,0.014903808260520882,0,0,0
-0.04471142478156264,0.05961523304208353,0.04471142478156264,0,0,0
-0.05961523304208353,-0.014903808260520882,0.05961523304208353,0,0,0
-0.04471142478156264,-0.08942284956312528,0.04471142478156264,0,0,0
-0.11923046608416706,-0.08942284956312528,0.07451904130260441,0,0,0
-0.11923046608416706,-0.08942284956312528,0.07451904130260441,0,0,0
-0.13413427434468791,-0.11923046608416706,0.04471142478156264,0,0,0
-0.14903808260520882,-0.1639418908657297,0.07451904130260441,0,0,0
-0.13413427434468791,-0.17884569912625056,0.08942284956312528,0,0,0
-0.08942284956312528,-0.19374950738677146,0.07451904130260441,0,0,0
-0.10432665782364618,-0.17884569912625056,-0.11923046608416706,0,0,0
0.04471142478156264,-0.28317235694989673,0.4620180560761473,0,0,0
0.07451904130260441,-0.253364740428855,0.07451904130260441,0,0,0
0.13413427434468791,-0.3129799734709385,0.2384609321683341,0,0,0
0.1639418908657297,-0.3427875899919803,0.07451904130260441,0,0,0
0.20865331564729236,-0.3576913982525011,-0.05961523304208353,0,0,0
0.2235571239078132,-0.3874990147735429,0.0,0,0,0
0.20865331564729236,-0.41730663129458473,-0.07451904130260441,0,0,0
0.19374950738677146,-0.4471142478156264,-0.10432665782364618,0,0,0
0.20865331564729236,-0.4769218643366682,-0.05961523304208353,0,0,0
0.17884569912625056,-0.5216332891182308,-0.10432665782364618,0,0,0
0.14903808260520882,-0.50672948085771,-0.14903808260520882,0,0,0
0.1639418908657297,-0.4620180560761473,-0.20865331564729236,0,0,0
0.1639418908657297,-0.4769218643366682,-0.26826854868937583,0,0,0
0.1639418908657297,-0.5514409056392726,-0.26826854868937583,0,0,0
0.11923046608416706,-0.625959946941877,-0.2384609321683341,0,0,0
0.11923046608416706,-0.6408637552023979,-0.2235571239078132,0,0,0
0.05961523304208353,-0.6110561386813561,-0.17884569912625056,0,0,0
-0.014903808260520882,-0.5216332891182308,-0.13413427434468791,0,0,0
-0.08942284956312528,-0.4918256725971891,-0.04471142478156264,0,0,0
-0.253364740428855,-0.41730663129458473,-0.05961523304208353,0,0,0
-0.3427875899919803,-0.3278837817314594,-0.08942284956312528,0,0,0
-0.3427875899919803,-0.3278837817314594,0.014903808260520882,0,0,0
-0.3278837817314594,-0.2384609321683341,0.0,0,0,0
-0.3874990147735429,-0.14903808260520882,0.014903808260520882,0,0,0
-0.28317235694989673,-0.253364740428855,-0.07451904130260441,0,0,0
-0.19374950738677146,-0.2235571239078132,-0.08942284956312528,0,0,0
-0.04471142478156264,-0.11923046608416706,-0.04471142478156264,0,0,0
-0.07451904130260441,-0.10432665782364618,-0.04471142478156264,0,0,0
0.04471142478156264,-0.10432665782364618,-0.04471142478156264,0,0,0
0.10432665782364618,-0.0,-0.014903808260520882,0,0,0
0.13413427434468791,0.014903808260520882,0.07451904130260441,0,0,0
0.17884569912625056,0.07451904130260441,-0.04471142478156264,0,0,0
0.19374950738677146,0.14903808260520882,-0.17884569912625056,0,0,0
0.1639418908657297,0.11923046608416706,-0.19374950738677146,0,0,0
0.13413427434468791,0.14903808260520882,-0.2235571239078132,0,0,0
0.07451904130260441,0.20865331564729236,-0.3129799734709385,0,0,0
-0.0,0.2235571239078132,-0.372595206513022,0,0,0
-0.04471142478156264,0.253364740428855,-0.3874990147735429,0,0,0
-0.04471142478156264,0.3576913982525011,-0.3576913982525011,0,0,0
-0.07451904130260441,0.40240282303406383,-0.28317235694989673,0,0,0
-0.07451904130260441,0.41730663129458473,-0.28317235694989673,0,0,0
-0.014903808260520882,0.5365370973787517,-0.3129799734709385,0,0,0
-0.07451904130260441,0.625959946941877,-0.26826854868937583,0,0,0
-0.10432665782364618,0.6706713717234397,-0.253364740428855,0,0,0
-0.08942284956312528,0.7153827965050022,-0.3278837817314594,0,0,0
-0.08942284956312528,0.7302866047655232,-0.3576913982525011,0,0,0
-0.04471142478156264,0.7004789882444814,-0.3427875899919803,0,0,0
-0.029807616521041764,0.6855751799839606,-0.3427875899919803,0,0,0
-0.05961523304208353,0.760094221286565,-0.3874990147735429,0,0,0
-0.04471142478156264,0.7899018378076067,-0.3874990147735429,0,0,0
-0.029807616521041764,0.8495170708496902,-0.3874990147735429,0,0,0
-0.0,0.9240361121522946,-0.3427875899919803,0,0,0
0.029807616521041764,0.9389399204128155,-0.3427875899919803,0,0,0
0.05961523304208353,0.864420879110211,-0.3129799734709385,0,0,0
0.10432665782364618,0.8197094543286485,-0.3129799734709385,0,0,0
0.13413427434468791,0.760094221286565,-0.3427875899919803,0,0,0
0.10432665782364618,0.6855751799839606,-0.372595206513022,0,0,0
0.11923046608416706,0.6408637552023979,-0.40240282303406383,0,0,0
0.05961523304208353,0.5812485221603144,-0.41730663129458473,0,0,0
-0.014903808260520882,0.5216332891182308,-0.4322104395551055,0,0,0
-0.04471142478156264,0.4769218643366682,-0.4471142478156264,0,0,0
-0.05961523304208353,0.4620180560761473,-0.4620180560761473,0,0,0
-0.07451904130260441,0.4620180560761473,-0.4769218643366682,0,0,0
-0.07451904130260441,0.4620180560761473,-0.4918256725971891,0,0,0
-0.029807616521041764,0.4322104395551055,-0.50672948085771,0,0,0
-0.029807616521041764,0.3874990147735429,-0.4769218643366682,0,0,0
0.0,0.29807616521041763,-0.41730663129458473,0,0,0
-0.029807616521041764,0.253364740428855,-0.3874990147735429,0,0,0
-0.07451904130260441,0.2384609321683341,-0.3576913982525011,0,0,0
-0.11923046608416706,0.2384609321683341,-0.3427875899919803,0,0,0
-0.1639418908657297,0.20865331564729236,-0.3278837817314594,0,0,0
-0.20865331564729236,0.1639418908657297,-0.3129799734709385,0,0,0
-0.253364740428855,0.13413427434468791,-0.3278837817314594,0,0,0
-0.29807616521041763,0.11923046608416706,-0.3427875899919803,0,0,0
-0.28317235694989673,0.08942284956312528,-0.3427875899919803,0,0,0
-0.3278837817314594,0.05961523304208353,-0.3278837817314594,0,0,0
-0.372595206513022,0.029807616521041764,-0.3278837817314594,0,0,0
-0.40240282303406383,0.029807616521041764,-0.3129799734709385,0,0,0
-0.41730663129458473,0.029807616521041764,-0.26826854868937583,0,0,0
-0.4769218643366682,0.05961523304208353,-0.20865331564729236,0,0,0
-0.5514409056392726,0.05961523304208353,-0.1639418908657297,0,0,0
-0.625959946941877,0.07451904130260441,-0.13413427434468791,0,0,0
-0.6110561386813561,0.05961523304208353,-0.10432665782364618,0,0,0
-0.5961523304208353,0.04471142478156264,-0.07451904130260441,0,0,0
-0.5663447138997935,0.04471142478156264,-0.07451904130260441,0,0,0
-0.5514409056392726,0.04471142478156264,-0.04471142478156264,0,0,0
-0.5365370973787517,0.029807616521041764,-0.029807616521041764,0,0,0
-0.5514409056392726,0.029807616521041764,0.014903808260520882,0,0,0
-0.5812485221603144,0.04471142478156264,0.04471142478156264,0,0,0
-0.5812485221603144,0.04471142478156264,0.029807616521041764,0,0,0
-0.5663447138997935,0.029807616521041764,0.04471142478156264,0,0,0
-0.5216332891182308,0.07451904130260441,0.05961523304208353,0,0,0
-0.4918256725971891,0.11923046608416706,0.029807616521041764,0,0,0
-0.40240282303406383,0.13413427434468791,-0.029807616521041764,0,0,0
-0.3427875899919803,0.14903808260520882,-0.07451904130260441,0,0,0
-0.28317235694989673,0.13413427434468791,-0.11923046608416706,0,0,0
-0.2235571239078132,0.10432665782364618,-0.14903808260520882,0,0,0
-0.14903808260520882,0.08942284956312528,-0.2384609321683341,0,0,0
-0.07451904130260441,0.07451904130260441,-0.26826854868937583,0,0,0
-0.0,0.029807616521041764,-0.28317235694989673,0,0,0
0.08942284956312528,-0.04471142478156264,-0.253364740428855,0,0,0
0.11923046608416706,-0.04471142478156264,-0.253364740428855,0,0,0
0.11923046608416706,-0.029807616521041764,-0.253364740428855,0,0,0
0.13413427434468791,-0.014903808260520882,-0.2384609321683341,0,0,0
0.10432665782364618,0.04471142478156264,-0.2235571239078132,0,0,0
0.05961523304208353,0.14903808260520882,-0.20865331564729236,0,0,0
0.0,0.19374950738677146,-0.20865331564729236,0,0,0
-0.014903808260520882,0.17884569912625056,-0.253364740428855,0,0,0
0.04471142478156264,0.10432665782364618,-0.372595206513022,0,0,0
0.11923046608416706,0.029807616521041764,-0.372595206513022,0,0,0
0.17884569912625056,-0.029807616521041764,-0.3874990147735429,0,0,0
0.29807616521041763,-0.029807616521041764,-0.372595206513022,0,0,0
0.3874990147735429,-0.029807616521041764,-0.3576913982525011,0,0,0
0.4322104395551055,-0.04471142478156264,-0.26826854868937583,0,0,0
0.4620180560761473,-0.029807616521041764,-0.20865331564729236,0,0,0
0.4471142478156264,-0.04471142478156264,-0.11923046608416706,0,0,0
0.4322104395551055,-0.04471142478156264,-0.08942284956312528,0,0,0
0.40240282303406383,-0.04471142478156264,0.0,0,0,0
0.3874990147735429,0.014903808260520882,-0.05961523304208353,0,0,0
0.3427875899919803,0.029807616521041764,-0.07451904130260441,0,0,0
0.3129799734709385,0.029807616521041764,-0.05961523304208353,0,0,0
0.3129799734709385,0.014903808260520882,-0.11923046608416706,0,0,0
0.3129799734709385,0.04471142478156264,-0.14903808260520882,0,0,0
0.28317235694989673,0.07451904130260441,-0.20865331564729236,0,0,0
0.2384609321683341,0.05961523304208353,-0.253364740428855,0,0,0
0.26826854868937583,0.05961523304208353,-0.28317235694989673,0,0,0
0.2384609321683341,0.04471142478156264,-0.3278837817314594,0,0,0
0.26826854868937583,0.029807616521041764,-0.3874990147735429,0,0,0
0.28317235694989673,0.029807616521041764,-0.41730663129458473,0,0,0
0.29807616521041763,0.029807616521041764,-0.41730663129458473,0,0,0
0.26826854868937583,0.04471142478156264,-0.40240282303406383,0,0,0
0.26826854868937583,0.07451904130260441,-0.372595206513022,0,0,0
0.26826854868937583,0.10432665782364618,-0.372595206513022,0,0,0
0.26826854868937583,0.13413427434468791,-0.3129799734709385,0,0,0
0.2384609321683341,0.14903808260520882,-0.3129799734709385,0,0,0
0.2384609321683341,0.17884569912625056,-0.3278837817314594,0,0,0
0.19374950738677146,0.2384609321683341,-0.29807616521041763,0,0,0
0.13413427434468791,0.3129799734709385,-0.29807616521041763,0,0,0
0.07451904130260441,0.3427875899919803,-0.3278837817314594,0,0,0
0.04471142478156264,0.3576913982525011,-0.3427875899919803,0,0,0
-0.0,0.3427875899919803,-0.3427875899919803,0,0,0
0.029807616521041764,0.3576913982525011,-0.3576913982525011,0,0,0
0.04471142478156264,0.40240282303406383,-0.3427875899919803,0,0,0
0.07451904130260441,0.4620180560761473,-0.3129799734709385,0,0,0
0.08942284956312528,0.5365370973787517,-0.28317235694989673,0,0,0
0.11923046608416706,0.5663447138997935,-0.26826854868937583,0,0,0
0.11923046608416706,0.5812485221603144,-0.28317235694989673,0,0,0
0.14903808260520882,0.5812485221603144,-0.26826854868937583,0,0,0
0.1639418908657297,0.5961523304208353,-0.3129799734709385,0,0,0
0.1639418908657297,0.5812485221603144,-0.3427875899919803,0,0,0
0.14903808260520882,0.5663447138997935,-0.3576913982525011,0,0,0
0.10432665782364618,0.5663447138997935,-0.3874990147735429,0,0,0
0.014903808260520882,0.5961523304208353,-0.372595206513022,0,0,0
-0.05961523304208353,0.6706713717234397,-0.372595206513022,0,0,0
-0.13413427434468791,0.7302866047655232,-0.3576913982525011,0,0,0
-0.1639418908657297,0.7899018378076067,-0.3576913982525011,0,0,0
-0.10432665782364618,0.8048056460681277,-0.3427875899919803,0,0,0
-0.0,0.760094221286565,-0.3427875899919803,0,0,0
0.07451904130260441,0.6706713717234397,-0.3427875899919803,0,0,0
0.19374950738677146,0.625959946941877,-0.3576913982525011,0,0,0
0.3129799734709385,0.5961523304208353,-0.3576913982525011,0,0,0
0.40240282303406383,0.5663447138997935,-0.3427875899919803,0,0,0
0.4322104395551055,0.5663447138997935,-0.3278837817314594,0,0,0
0.41730663129458473,0.625959946941877,-0.29807616521041763,0,0,0
0.3874990147735429,0.5812485221603144,-0.2235571239078132,0,0,0
0.40240282303406383,0.5216332891182308,-0.372595206513022,0,0,0
0.372595206513022,0.4471142478156264,-0.372595206513022,0,0,0
0.3129799734709385,0.3129799734709385,-0.3427875899919803,0,0,0
0.2384609321683341,0.14903808260520882,-0.3129799734709385,0,0,0
0.14903808260520882,0.029807616521041764,-0.2384609321683341,0,0,0
0.029807616521041764,0.014903808260520882,-0.19374950738677146,0,0,0
-0.10432665782364618,-0.07451904130260441,-0.0,0,0,0
-0.17884569912625056,-0.14903808260520882,0.1639418908657297,0,0,0
-0.20865331564729236,-0.2235571239078132,0.372595206513022,0,0,0
-0.2235571239078132,-0.2235571239078132,0.41730663129458473,0,0,0
-0.17884569912625056,-0.253364740428855,0.4769218643366682,0,0,0
-0.14903808260520882,-0.26826854868937583,0.5812485221603144,0,0,0
-0.17884569912625056,-0.3129799734709385,0.5812485221603144,0,0,0
-0.10432665782364618,-0.3576913982525011,0.4769218643366682,0,0,0
-0.05961523304208353,-0.4769218643366682,0.40240282303406383,0,0,0
0.07451904130260441,-0.5365370973787517,0.29807616521041763,0,0,0
0.13413427434468791,-0.6110561386813561,0.2235571239078132,0,0,0
0.253364740428855,-0.6408637552023979,0.3278837817314594,0,0,0
0.2384609321683341,-0.5812485221603144,0.28317235694989673,0,0,0
0.2384609321683341,-0.5961523304208353,0.11923046608416706,0,0,0
0.253364740428855,-0.5961523304208353,0.1639418908657297,0,0,0
0.2235571239078132,-0.5812485221603144,0.28317235694989673,0,0,0
0.17884569912625056,-0.5663447138997935,0.3576913982525011,0,0,0
0.13413427434468791,-0.5514409056392726,0.4471142478156264,0,0,0
0.08942284956312528,-0.5216332891182308,0.372595206513022,0,0,0
0.05961523304208353,-0.5365370973787517,0.26826854868937583,0,0,0
0.11923046608416706,-0.5812485221603144,0.29807616521041763,0,0,0
0.1639418908657297,-0.5216332891182308,0.26826854868937583,0,0,0
0.2384609321683341,-0.50672948085771,0.26826854868937583,0,0,0
0.3278837817314594,-0.41730663129458473,0.26826854868937583,0,0,0
0.3874990147735429,-0.3576913982525011,0.28317235694989673,0,0,0
0.40240282303406383,-0.29807616521041763,0.3278837817314594,0,0,0
0.41730663129458473,-0.28317235694989673,0.3576913982525011,0,0,0
0.40240282303406383,-0.26826854868937583,0.3576913982525011,0,0,0
0.372595206513022,-0.2384609321683341,0.372595206513022,0,0,0
0.3427875899919803,-0.19374950738677146,0.3874990147735429,0,0,0
0.29807616521041763,-0.17884569912625056,0.3576913982525011,0,0,0
0.29807616521041763,-0.17884569912625056,0.3278837817314594,0,0,0
0.3427875899919803,-0.17884569912625056,0.3129799734709385,0,0,0
0.40240282303406383,-0.1639418908657297,0.29807616521041763,0,0,0
0.4620180560761473,-0.13413427434468791,0.26826854868937583,0,0,0
0.5216332891182308,-0.08942284956312528,0.2384609321683341,0,0,0
0.5365370973787517,-0.07451904130260441,0.2384609321683341,0,0,0
0.5663447138997935,-0.05961523304208353,0.2384609321683341,0,0,0
0.5812485221603144,-0.029807616521041764,0.2235571239078132,0,0,0
0.5961523304208353,-0.0,0.20865331564729236,0,0,0
0.6110561386813561,0.029807616521041764,0.17884569912625056,0,0,0
0.625959946941877,0.029807616521041764,0.19374950738677146,0,0,0
0.6706713717234397,0.029807616521041764,0.2235571239078132,0,0,0
0.7153827965050022,0.04471142478156264,0.19374950738677146,0,0,0
0.7302866047655232,0.07451904130260441,0.13413427434468791,0,0,0
0.7302866047655232,0.11923046608416706,0.1639418908657297,0,0,0
0.6855751799839606,0.1639418908657297,0.19374950738677146,0,0,0
0.5812485221603144,0.13413427434468791,0.19374950738677146,0,0,0
0.4769218643366682,0.11923046608416706,0.17884569912625056,0,0,0
0.40240282303406383,0.13413427434468791,0.2235571239078132,0,0,0
0.372595206513022,0.13413427434468791,0.1639418908657297,0,0,0
0.3427875899919803,0.10432665782364618,0.17884569912625056,0,0,0
0.3427875899919803,0.08942284956312528,0.07451904130260441,0,0,0
0.4322104395551055,0.08942284956312528,-0.029807616521041764,0,0,0
0.41730663129458473,0.014903808260520882,0.5216332891182308,0,0,0
0.372595206513022,0.07451904130260441,-0.029807616521041764,0,0,0
0.29807616521041763,0.10432665782364618,0.05961523304208353,0,0,0
0.19374950738677146,0.10432665782364618,0.19374950738677146,0,0,0
0.11923046608416706,0.07451904130260441,0.17884569912625056,0,0,0
0.029807616521041764,0.08942284956312528,0.26826854868937583,0,0,0
-0.08942284956312528,0.13413427434468791,0.26826854868937583,0,0,0
-0.1639418908657297,0.19374950738677146,0.20865331564729236,0,0,0
-0.2384609321683341,0.26826854868937583,0.2384609321683341,0,0,0
-0.29807616521041763,0.26826854868937583,0.3427875899919803,0,0,0
-0.29807616521041763,0.253364740428855,0.29807616521041763,0,0,0
-0.3576913982525011,0.253364740428855,0.19374950738677146,0,0,0
-0.4620180560761473,0.19374950738677146,0.13413427434468791,0,0,0
-0.5216332891182308,0.19374950738677146,0.14903808260520882,0,0,0
-0.5961523304208353,0.17884569912625056,0.05961523304208353,0,0,0
-0.625959946941877,0.17884569912625056,-0.04471142478156264,0,0,0
-0.6110561386813561,0.17884569912625056,-0.08942284956312528,0,0,0
-0.5663447138997935,0.19374950738677146,-0.13413427434468791,0,0,0
-0.4918256725971891,0.17884569912625056,-0.13413427434468791,0,0,0
-0.372595206513022,0.2235571239078132,-0.2235571239078132,0,0,0
-0.3427875899919803,0.2235571239078132,-0.11923046608416706,0,0,0
-0.26826854868937583,0.253364740428855,-0.029807616521041764,0,0,0
-0.17884569912625056,0.253364740428855,-0.029807616521041764,0,0,0
-0.11923046608416706,0.20865331564729236,-0.029807616521041764,0,0,0
-0.04471142478156264,0.2235571239078132,0.0,0,0,0
-0.029807616521041764,0.20865331564729236,-0.07451904130260441,0,0,0
-0.13413427434468791,0.1639418908657297,-0.08942284956312528,0,0,0
-0.19374950738677146,0.11923046608416706,-0.07451904130260441,0,0,0
-0.28317235694989673,0.10432665782364618,0.014903808260520882,0,0,0
-0.3874990147735429,0.11923046608416706,0.014903808260520882,0,0,0
-0.41730663129458473,0.14903808260520882,0.04471142478156264,0,0,0
-0.40240282303406383,0.1639418908657297,0.04471142478156264,0,0,0
-0.3576913982525011,0.1639418908657297,-0.0,0,0,0
-0.3129799734709385,0.1639418908657297,0.0,0,0,0
-0.28317235694989673,0.14903808260520882,0.0,0,0,0
-0.19374950738677146,0.14903808260520882,-0.029807616521041764,0,0,0
-0.10432665782364618,0.1639418908657297,-0.014903808260520882,0,0,0
-0.05961523304208353,0.1639418908657297,-0.0,0,0,0
