0.01942938351447002,0.0971469175723501,-0.01942938351447002,0,0,0
0.01942938351447002,0.0971469175723501,-0.01942938351447002,0,0,0
-0.0,0.0971469175723501,-0.03885876702894004,0,0,0
-0.01942938351447002,0.0971469175723501,-0.01942938351447002,0,0,0
-0.03885876702894004,0.11657630108682011,-0.05828815054341006,0,0,0
-0.0,0.0971469175723501,-0.03885876702894004,0,0,0
-0.01942938351447002,0.11657630108682011,-0.0971469175723501,0,0,0
-0.01942938351447002,0.11657630108682011,-0.05828815054341006,0,0,0
-0.03885876702894004,0.0971469175723501,-0.01942938351447002,0,0,0
-0.01942938351447002,0.0971469175723501,-0.03885876702894004,0,0,0
-0.01942938351447002,0.0971469175723501,-0.05828815054341006,0,0,0
-0.01942938351447002,0.0971469175723501,-0.03885876702894004,0,0,0
-0.01942938351447002,0.0971469175723501,-0.03885876702894004,0,0,0
-0.01942938351447002,0.0971469175723501,-0.03885876702894004,0,0,0
-0.0,0.07771753405788008,-0.03885876702894004,0,0,0
0.0,0.05828815054341006,0.01942938351447002,0,0,0
0.01942938351447002,0.07771753405788008,-0.01942938351447002,0,0,0
0.0,0.07771753405788008,-0.01942938351447002,0,0,0
-0.0,0.07771753405788008,0.0,0,0,0
0.01942938351447002,0.07771753405788008,-0.0,0,0,0
0.03885876702894004,0.07771753405788008,-0.03885876702894004,0,0,0
-0.0,0.07771753405788008,-0.05828815054341006,0,0,0
-0.01942938351447002,0.05828815054341006,-0.01942938351447002,0,0,0
-0.01942938351447002,0.07771753405788008,-0.07771753405788008,0,0,0
-0.01942938351447002,0.07771753405788008,0.01942938351447002,0,0,0
-0.01942938351447002,0.0971469175723501,-0.01942938351447002,0,0,0
-0.03885876702894004,0.0971469175723501,0.01942938351447002,0,0,0
-0.03885876702894004,0.0971469175723501,0.01942938351447002,0,0,0
-0.03885876702894004,0.07771753405788008,-0.03885876702894004,0,0,0
-0.03885876702894004,0.05828815054341006,0.01942938351447002,0,0,0
-0.01942938351447002,0.05828815054341006,0.0,0,0,0
-0.0,0.07771753405788008,-0.01942938351447002,0,0,0
-0.01942938351447002,0.07771753405788008,0.0,0,0,0
-0.01942938351447002,0.05828815054341006,-0.01942938351447002,0,0,0
-0.05828815054341006,0.03885876702894004,-0.01942938351447002,0,0,0
-0.05828815054341006,0.01942938351447002,0.01942938351447002,0,0,0
-0.03885876702894004,-0.0,0.03885876702894004,0,0,0
-0.01942938351447002,-0.0,-0.01942938351447002,0,0,0
-0.03885876702894004,-0.03885876702894004,0.0,0,0,0
-0.03885876702894004,-0.0971469175723501,-0.01942938351447002,0,0,0
-0.03885876702894004,-0.13600568460129014,-0.03885876702894004,0,0,0
-0.05828815054341006,-0.13600568460129014,-0.03885876702894004,0,0,0
-0.07771753405788008,-0.17486445163023018,-0.01942938351447002,0,0,0
-0.01942938351447002,-0.17486445163023018,-0.11657630108682011,0,0,0
-0.0971469175723501,-0.2137232186591702,-0.05828815054341006,0,0,0
-0.03885876702894004,-0.2914407527170503,0.0,0,0,0
-0.01942938351447002,-0.2914407527170503,-0.01942938351447002,0,0,0
-0.01942938351447002,-0.3108701362315203,-0.03885876702894004,0,0,0
-0.0,-0.3108701362315203,0.0,0,0,0
0.07771753405788008,-0.34972890326046036,-0.0,0,0,0
0.03885876702894004,-0.3108701362315203,0.11657630108682011,0,0,0
0.01942938351447002,-0.33029951974599037,0.05828815054341006,0,0,0
-0.01942938351447002,-0.34972890326046036,-0.0,0,0,0
0.03885876702894004,-0.33029951974599037,0.01942938351447002,0,0,0
-0.01942938351447002,-0.2720113692025803,0.01942938351447002,0,0,0
0.01942938351447002,-0.2720113692025803,0.07771753405788008,0,0,0
0.05828815054341006,-0.23315260217364023,0.07771753405788008,0,0,0
-0.0,-0.11657630108682011,0.0971469175723501,0,0,0
0.01942938351447002,-0.15543506811576016,0.13600568460129014,0,0,0
0.05828815054341006,-0.17486445163023018,0.05828815054341006,0,0,0
0.03885876702894004,-0.17486445163023018,-0.05828815054341006,0,0,0
-0.0,-0.1942938351447002,-0.07771753405788008,0,0,0
-0.0,-0.1942938351447002,-0.03885876702894004,0,0,0
-0.0,-0.15543506811576016,-0.01942938351447002,0,0,0
0.0,-0.0971469175723501,-0.03885876702894004,0,0,0
-0.01942938351447002,-0.01942938351447002,-0.03885876702894004,0,0,0
-0.03885876702894004,-0.0,-0.07771753405788008,0,0,0
0.0,0.01942938351447002,-0.0971469175723501,0,0,0
-0.03885876702894004,-0.03885876702894004,-0.07771753405788008,0,0,0
-0.05828815054341006,-0.0,-0.11657630108682011,0,0,0
-0.05828815054341006,0.01942938351447002,-0.2720113692025803,0,0,0
-0.05828815054341006,-0.01942938351447002,-0.25258198568811024,0,0,0
-0.05828815054341006,-0.07771753405788008,-0.25258198568811024,0,0,0
-0.0971469175723501,-0.07771753405788008,-0.2720113692025803,0,0,0
-0.07771753405788008,-0.0971469175723501,-0.2914407527170503,0,0,0
-0.01942938351447002,-0.0971469175723501,-0.23315260217364023,0,0,0
0.07771753405788008,-0.05828815054341006,-0.2720113692025803,0,0,0
0.03885876702894004,-0.05828815054341006,-0.25258198568811024,0,0,0
-0.01942938351447002,-0.05828815054341006,-0.2137232186591702,0,0,0
-0.03885876702894004,-0.03885876702894004,-0.2137232186591702,0,0,0
-0.03885876702894004,-0.05828815054341006,-0.17486445163023018,0,0,0
0.03885876702894004,-0.03885876702894004,-0.17486445163023018,0,0,0
0.0971469175723501,0.01942938351447002,-0.1942938351447002,0,0,0
0.05828815054341006,-0.01942938351447002,-0.17486445163023018,0,0,0
0.03885876702894004,-0.03885876702894004,-0.23315260217364023,0,0,0
0.0,-0.01942938351447002,-0.2720113692025803,0,0,0
-0.03885876702894004,-0.01942938351447002,-0.2914407527170503,0,0,0
-0.11657630108682011,-0.05828815054341006,-0.2720113692025803,0,0,0
-0.13600568460129014,-0.0971469175723501,-0.2914407527170503,0,0,0
-0.23315260217364023,-0.05828815054341006,-0.3108701362315203,0,0,0
-0.17486445163023018,-0.07771753405788008,-0.33029951974599037,0,0,0
-0.0,-0.17486445163023018,-0.25258198568811024,0,0,0
0.13600568460129014,-0.17486445163023018,-0.11657630108682011,0,0,0
0.13600568460129014,-0.11657630108682011,-0.3108701362315203,0,0,0
0.0971469175723501,-0.13600568460129014,-0.3885876702894004,0,0,0
0.0971469175723501,-0.13600568460129014,-0.46630520434728046,0,0,0
0.07771753405788008,-0.1942938351447002,-0.5051639713762205,0,0,0
0.03885876702894004,-0.2137232186591702,-0.6411696559775106,0,0,0
-0.0,-0.17486445163023018,-0.6411696559775106,0,0,0
-0.01942938351447002,-0.0971469175723501,-0.6023108889485705,0,0,0
-0.05828815054341006,-0.05828815054341006,-0.6023108889485705,0,0,0
-0.07771753405788008,-0.05828815054341006,-0.5634521219196305,0,0,0
-0.13600568460129014,-0.03885876702894004,-0.46630520434728046,0,0,0
-0.01942938351447002,0.01942938351447002,-0.44687582083281047,0,0,0
0.03885876702894004,0.03885876702894004,-0.2720113692025803,0,0,0
0.05828815054341006,0.07771753405788008,-0.25258198568811024,0,0,0
0.0971469175723501,0.0971469175723501,-0.2914407527170503,0,0,0
0.0971469175723501,0.17486445163023018,-0.2720113692025803,0,0,0
0.13600568460129014,0.34972890326046036,-0.33029951974599037,0,0,0
0.13600568460129014,0.44687582083281047,-0.3885876702894004,0,0,0
0.03885876702894004,0.5440227384051606,-0.3108701362315203,0,0,0
-0.11657630108682011,0.6023108889485705,-0.33029951974599037,0,0,0
-0.11657630108682011,0.6217402724630406,-0.33029951974599037,0,0,0
-0.13600568460129014,0.6605990394919807,-0.2720113692025803,0,0,0
-0.11657630108682011,0.6994578065209207,-0.23315260217364023,0,0,0
-0.13600568460129014,0.7188871900353907,-0.25258198568811024,0,0,0
-0.15543506811576016,0.7771753405788008,-0.25258198568811024,0,0,0
-0.1942938351447002,0.8354634911222109,-0.2137232186591702,0,0,0
-0.07771753405788008,0.8743222581511508,-0.23315260217364023,0,0,0
-0.05828815054341006,0.8354634911222109,-0.23315260217364023,0,0,0
-0.11657630108682011,0.8743222581511508,-0.1942938351447002,0,0,0
-0.0971469175723501,0.8354634911222109,-0.23315260217364023,0,0,0
-0.05828815054341006,0.8548928746366808,-0.2720113692025803,0,0,0
-0.07771753405788008,0.8743222581511508,-0.34972890326046036,0,0,0
-0.13600568460129014,0.8354634911222109,-0.3885876702894004,0,0,0
-0.17486445163023018,0.7771753405788008,-0.44687582083281047,0,0,0
-0.23315260217364023,0.7771753405788008,-0.4857345878617505,0,0,0
-0.3108701362315203,0.7188871900353907,-0.6217402724630406,0,0,0
-0.3108701362315203,0.6023108889485705,-0.5440227384051606,0,0,0
-0.2914407527170503,0.6023108889485705,-0.5051639713762205,0,0,0
-0.2914407527170503,0.5440227384051606,-0.4857345878617505,0,0,0
-0.23315260217364023,0.5051639713762205,-0.5245933548906906,0,0,0
-0.1942938351447002,0.44687582083281047,-0.5828815054341006,0,0,0
-0.2137232186591702,0.3885876702894004,-0.4857345878617505,0,0,0
-0.17486445163023018,0.36915828677493034,-0.5245933548906906,0,0,0
-0.11657630108682011,0.34972890326046036,-0.6217402724630406,0,0,0
-0.11657630108682011,0.2914407527170503,-0.5634521219196305,0,0,0
-0.13600568460129014,0.25258198568811024,-0.5634521219196305,0,0,0
-0.2137232186591702,0.1942938351447002,-0.6023108889485705,0,0,0
-0.23315260217364023,0.15543506811576016,-0.5051639713762205,0,0,0
-0.23315260217364023,0.13600568460129014,-0.4274464373183404,0,0,0
-0.23315260217364023,0.15543506811576016,-0.3885876702894004,0,0,0
-0.25258198568811024,0.17486445163023018,-0.36915828677493034,0,0,0
-0.25258198568811024,0.1942938351447002,-0.3108701362315203,0,0,0
-0.2914407527170503,0.1942938351447002,-0.2720113692025803,0,0,0
-0.33029951974599037,0.1942938351447002,-0.25258198568811024,0,0,0
-0.36915828677493034,0.17486445163023018,-0.25258198568811024,0,0,0
-0.34972890326046036,0.15543506811576016,-0.2720113692025803,0,0,0
-0.34972890326046036,0.13600568460129014,-0.2720113692025803,0,0,0
-0.33029951974599037,0.13600568460129014,-0.34972890326046036,0,0,0
-0.33029951974599037,0.11657630108682011,-0.3885876702894004,0,0,0
-0.34972890326046036,0.0971469175723501,-0.4274464373183404,0,0,0
-0.34972890326046036,0.0971469175723501,-0.44687582083281047,0,0,0
-0.36915828677493034,0.07771753405788008,-0.44687582083281047,0,0,0
-0.4080170538038704,0.03885876702894004,-0.44687582083281047,0,0,0
-0.44687582083281047,0.01942938351447002,-0.4274464373183404,0,0,0
-0.46630520434728046,0.0971469175723501,-0.44687582083281047,0,0,0
-0.5245933548906906,0.13600568460129014,-0.33029951974599037,0,0,0
-0.5828815054341006,0.1942938351447002,-0.3108701362315203,0,0,0
-0.6217402724630406,0.1942938351447002,-0.3108701362315203,0,0,0
-0.6217402724630406,0.15543506811576016,-0.23315260217364023,0,0,0
-0.6605990394919807,0.07771753405788008,-0.23315260217364023,0,0,0
-0.6411696559775106,0.03885876702894004,-0.23315260217364023,0,0,0
-0.6217402724630406,0.05828815054341006,-0.2720113692025803,0,0,0
-0.6605990394919807,0.05828815054341006,-0.1942938351447002,0,0,0
-0.7188871900353907,0.0971469175723501,-0.15543506811576016,0,0,0
-0.7188871900353907,0.0971469175723501,-0.2137232186591702,0,0,0
-0.7188871900353907,0.0971469175723501,-0.11657630108682011,0,0,0
-0.7188871900353907,0.15543506811576016,-0.01942938351447002,0,0,0
-0.6994578065209207,0.17486445163023018,0.0,0,0,0
-0.6994578065209207,0.17486445163023018,0.01942938351447002,0,0,0
-0.6800284230064506,0.11657630108682011,0.05828815054341006,0,0,0
-0.5245933548906906,0.03885876702894004,-0.05828815054341006,0,0,0
-0.6023108889485705,0.0,-0.03885876702894004,0,0,0
-0.4857345878617505,0.01942938351447002,-0.07771753405788008,0,0,0
-0.46630520434728046,0.05828815054341006,-0.11657630108682011,0,0,0
-0.4080170538038704,0.07771753405788008,-0.17486445163023018,0,0,0
-0.3885876702894004,0.0971469175723501,-0.17486445163023018,0,0,0
-0.4274464373183404,0.05828815054341006,-0.13600568460129014,0,0,0
-0.36915828677493034,0.03885876702894004,-0.07771753405788008,0,0,0
-0.2720113692025803,0.07771753405788008,-0.07771753405788008,0,0,0
-0.2137232186591702,0.0971469175723501,-0.11657630108682011,0,0,0
-0.17486445163023018,0.0971469175723501,-0.07771753405788008,0,0,0
-0.1942938351447002,0.01942938351447002,0.0,0,0,0
-0.2137232186591702,-0.01942938351447002,-0.07771753405788008,0,0,0
-0.17486445163023018,-0.0,-0.01942938351447002,0,0,0
-0.11657630108682011,0.11657630108682011,0.05828815054341006,0,0,0
-0.07771753405788008,0.1942938351447002,0.1942938351447002,0,0,0
-0.15543506811576016,0.25258198568811024,0.11657630108682011,0,0,0
-0.03885876702894004,0.2137232186591702,0.25258198568811024,0,0,0
-0.11657630108682011,0.2137232186591702,0.23315260217364023,0,0,0
-0.05828815054341006,0.2914407527170503,0.3108701362315203,0,0,0
-0.0971469175723501,0.33029951974599037,0.2137232186591702,0,0,0
0.03885876702894004,0.2720113692025803,0.23315260217364023,0,0,0
0.15543506811576016,0.11657630108682011,0.2720113692025803,0,0,0
0.1942938351447002,0.05828815054341006,0.36915828677493034,0,0,0
0.25258198568811024,0.05828815054341006,0.1942938351447002,0,0,0
0.3108701362315203,-0.05828815054341006,0.17486445163023018,0,0,0
0.36915828677493034,-0.05828815054341006,0.17486445163023018,0,0,0
0.4080170538038704,-0.15543506811576016,0.23315260217364023,0,0,0
0.46630520434728046,-0.1942938351447002,-0.07771753405788008,0,0,0
0.46630520434728046,-0.03885876702894004,-0.2137232186591702,0,0,0
0.44687582083281047,0.0971469175723501,-0.17486445163023018,0,0,0
0.34972890326046036,0.05828815054341006,-0.3108701362315203,0,0,0
0.2720113692025803,-0.03885876702894004,-0.3885876702894004,0,0,0
0.25258198568811024,-0.05828815054341006,-0.33029951974599037,0,0,0
0.34972890326046036,-0.0971469175723501,-0.36915828677493034,0,0,0
0.36915828677493034,-0.0971469175723501,-0.4080170538038704,0,0,0
0.5245933548906906,-0.13600568460129014,-0.3885876702894004,0,0,0
0.5245933548906906,-0.1942938351447002,-0.4274464373183404,0,0,0
0.44687582083281047,-0.1942938351447002,-0.46630520434728046,0,0,0
0.4080170538038704,-0.07771753405788008,-0.4274464373183404,0,0,0
0.33029951974599037,-0.0,-0.36915828677493034,0,0,0
0.2137232186591702,0.03885876702894004,-0.33029951974599037,0,0,0
0.13600568460129014,0.03885876702894004,-0.23315260217364023,0,0,0
0.03885876702894004,0.05828815054341006,-0.2137232186591702,0,0,0
0.0,0.07771753405788008,-0.0971469175723501,0,0,0
0.03885876702894004,0.15543506811576016,-0.0,0,0,0
0.05828815054341006,0.13600568460129014,0.0971469175723501,0,0,0
0.11657630108682011,0.17486445163023018,0.0971469175723501,0,0,0
0.11657630108682011,0.17486445163023018,0.07771753405788008,0,0,0
0.0971469175723501,0.1942938351447002,-0.01942938351447002,0,0,0
0.07771753405788008,0.15543506811576016,0.01942938351447002,0,0,0
0.05828815054341006,0.11657630108682011,-0.05828815054341006,0,0,0
0.05828815054341006,0.13600568460129014,-0.13600568460129014,0,0,0
0.01942938351447002,0.17486445163023018,-0.2137232186591702,0,0,0
0.0971469175723501,0.15543506811576016,-0.25258198568811024,0,0,0
0.05828815054341006,0.17486445163023018,-0.2720113692025803,0,0,0
0.11657630108682011,0.15543506811576016,-0.4080170538038704,0,0,0
0.05828815054341006,0.15543506811576016,-0.44687582083281047,0,0,0
0.07771753405788008,0.15543506811576016,-0.5245933548906906,0,0,0
0.03885876702894004,0.11657630108682011,-0.5440227384051606,0,0,0
0.01942938351447002,0.17486445163023018,-0.6217402724630406,0,0,0
-0.05828815054341006,0.25258198568811024,-0.5051639713762205,0,0,0
-0.13600568460129014,0.33029951974599037,-0.44687582083281047,0,0,0
-0.17486445163023018,0.3885876702894004,-0.36915828677493034,0,0,0
-0.1942938351447002,0.46630520434728046,-0.2914407527170503,0,0,0
-0.13600568460129014,0.5245933548906906,-0.23315260217364023,0,0,0
-0.05828815054341006,0.6023108889485705,-0.25258198568811024,0,0,0
-0.07771753405788008,0.6411696559775106,-0.1942938351447002,0,0,0
-0.0971469175723501,0.6800284230064506,-0.2137232186591702,0,0,0
-0.13600568460129014,0.6800284230064506,-0.2137232186591702,0,0,0
-0.17486445163023018,0.6411696559775106,-0.25258198568811024,0,0,0
-0.15543506811576016,0.6411696559775106,-0.23315260217364023,0,0,0
-0.0971469175723501,0.6605990394919807,-0.23315260217364023,0,0,0
-0.03885876702894004,0.6994578065209207,-0.25258198568811024,0,0,0
0.0,0.7383165735498607,-0.3108701362315203,0,0,0
0.03885876702894004,0.7383165735498607,-0.25258198568811024,0,0,0
0.07771753405788008,0.6800284230064506,-0.15543506811576016,0,0,0
0.11657630108682011,0.6411696559775106,-0.1942938351447002,0,0,0
0.05828815054341006,0.6605990394919807,-0.15543506811576016,0,0,0
0.01942938351447002,0.6800284230064506,-0.13600568460129014,0,0,0
-0.0,0.7188871900353907,-0.17486445163023018,0,0,0
0.03885876702894004,0.7383165735498607,-0.17486445163023018,0,0,0
0.15543506811576016,0.7188871900353907,-0.2914407527170503,0,0,0
0.23315260217364023,0.6994578065209207,-0.33029951974599037,0,0,0
0.23315260217364023,0.6800284230064506,-0.4274464373183404,0,0,0
0.1942938351447002,0.6605990394919807,-0.3885876702894004,0,0,0
0.13600568460129014,0.6023108889485705,-0.4080170538038704,0,0,0
0.01942938351447002,0.5245933548906906,-0.2914407527170503,0,0,0
-0.0971469175723501,0.5245933548906906,-0.2137232186591702,0,0,0
-0.15543506811576016,0.5634521219196305,-0.0971469175723501,0,0,0
-0.07771753405788008,0.6217402724630406,0.05828815054341006,0,0,0
-0.0971469175723501,0.6800284230064506,0.1942938351447002,0,0,0
0.11657630108682011,0.6800284230064506,0.15543506811576016,0,0,0
0.4080170538038704,0.5634521219196305,0.05828815054341006,0,0,0
0.4857345878617505,0.44687582083281047,0.0971469175723501,0,0,0
0.36915828677493034,0.33029951974599037,-0.0,0,0,0
0.2720113692025803,0.1942938351447002,-0.4274464373183404,0,0,0
0.11657630108682011,0.0971469175723501,-0.11657630108682011,0,0,0
-0.03885876702894004,0.11657630108682011,-0.0971469175723501,0,0,0
-0.1942938351447002,0.2137232186591702,-0.0971469175723501,0,0,0
-0.17486445163023018,0.2137232186591702,0.07771753405788008,0,0,0
0.07771753405788008,0.1942938351447002,0.1942938351447002,0,0,0
0.2137232186591702,-0.0,0.2720113692025803,0,0,0
0.15543506811576016,-0.0971469175723501,0.15543506811576016,0,0,0
0.3108701362315203,-0.25258198568811024,-0.01942938351447002,0,0,0
0.5051639713762205,-0.34972890326046036,0.0971469175723501,0,0,0
0.7577459570643308,-0.44687582083281047,0.13600568460129014,0,0,0
0.6994578065209207,-0.6217402724630406,-0.01942938351447002,0,0,0
0.5634521219196305,-0.6217402724630406,-0.01942938351447002,0,0,0
0.3108701362315203,-0.5828815054341006,0.03885876702894004,0,0,0
0.17486445163023018,-0.5634521219196305,0.3108701362315203,0,0,0
0.07771753405788008,-0.5440227384051606,0.5440227384051606,0,0,0
0.0971469175723501,-0.5440227384051606,0.5051639713762205,0,0,0
0.17486445163023018,-0.5051639713762205,0.34972890326046036,0,0,0
0.36915828677493034,-0.5828815054341006,0.2720113692025803,0,0,0
0.4080170538038704,-0.6217402724630406,0.0971469175723501,0,0,0
0.34972890326046036,-0.7771753405788008,-0.1942938351447002,0,0,0
0.33029951974599037,-0.8354634911222109,-0.33029951974599037,0,0,0
0.25258198568811024,-0.7966047240932708,-0.25258198568811024,0,0,0
0.17486445163023018,-0.7383165735498607,-0.2720113692025803,0,0,0
0.11657630108682011,-0.7188871900353907,-0.17486445163023018,0,0,0
0.11657630108682011,-0.6605990394919807,-0.11657630108682011,0,0,0
0.25258198568811024,-0.6217402724630406,0.0,0,0,0
0.3108701362315203,-0.6217402724630406,-0.07771753405788008,0,0,0
0.36915828677493034,-0.6023108889485705,-0.11657630108682011,0,0,0
0.4274464373183404,-0.5828815054341006,-0.3108701362315203,0,0,0
0.33029951974599037,-0.5245933548906906,-0.4857345878617505,0,0,0
0.17486445163023018,-0.5051639713762205,-0.5634521219196305,0,0,0
0.11657630108682011,-0.5245933548906906,-0.5634521219196305,0,0,0
-0.01942938351447002,-0.5245933548906906,-0.4857345878617505,0,0,0
-0.07771753405788008,-0.5051639713762205,-0.4274464373183404,0,0,0
-0.0,-0.3885876702894004,-0.07771753405788008,0,0,0
0.1942938351447002,-0.2914407527170503,-0.03885876702894004,0,0,0
0.33029951974599037,-0.2137232186591702,0.07771753405788008,0,0,0
0.44687582083281047,-0.11657630108682011,0.2137232186591702,0,0,0
0.5634521219196305,-0.05828815054341006,0.23315260217364023,0,0,0
0.5828815054341006,-0.05828815054341006,0.23315260217364023,0,0,0
0.5440227384051606,0.01942938351447002,0.2137232186591702,0,0,0
0.44687582083281047,-0.01942938351447002,0.11657630108682011,0,0,0
0.36915828677493034,-0.01942938351447002,0.03885876702894004,0,0,0
0.33029951974599037,0.0,0.25258198568811024,0,0,0
0.33029951974599037,0.03885876702894004,0.2720113692025803,0,0,0
0.3885876702894004,0.03885876702894004,0.25258198568811024,0,0,0
0.46630520434728046,-0.01942938351447002,0.2720113692025803,0,0,0
0.4857345878617505,-0.03885876702894004,0.25258198568811024,0,0,0
0.5051639713762205,-0.01942938351447002,0.2137232186591702,0,0,0
0.5051639713762205,-0.01942938351447002,0.03885876702894004,0,0,0
0.5051639713762205,-0.0,-0.11657630108682011,0,0,0
0.5440227384051606,-0.0,-0.13600568460129014,0,0,0
0.4857345878617505,0.01942938351447002,-0.11657630108682011,0,0,0
0.5051639713762205,0.07771753405788008,-0.15543506811576016,0,0,0
0.46630520434728046,0.05828815054341006,-0.2137232186591702,0,0,0
0.5245933548906906,0.03885876702894004,-0.2137232186591702,0,0,0
0.5634521219196305,0.05828815054341006,-0.0971469175723501,0,0,0
0.6023108889485705,0.07771753405788008,-0.03885876702894004,0,0,0
0.6605990394919807,0.0971469175723501,-0.07771753405788008,0,0,0
0.6800284230064506,0.15543506811576016,-0.0971469175723501,0,0,0
0.7188871900353907,0.17486445163023018,0.13600568460129014,0,0,0
0.7966047240932708,0.13600568460129014,0.0,0,0,0
0.7383165735498607,0.11657630108682011,-0.07771753405788008,0,0,0
0.6994578065209207,0.11657630108682011,-0.07771753405788008,0,0,0
0.7188871900353907,0.13600568460129014,-0.13600568460129014,0,0,0
0.6411696559775106,0.15543506811576016,-0.15543506811576016,0,0,0
0.6023108889485705,0.17486445163023018,-0.13600568460129014,0,0,0
0.5440227384051606,0.15543506811576016,-0.07771753405788008,0,0,0
0.5245933548906906,0.15543506811576016,-0.05828815054341006,0,0,0
0.5440227384051606,0.15543506811576016,-0.05828815054341006,0,0,0
0.5828815054341006,0.2137232186591702,0.0,0,0,0
0.5828815054341006,0.1942938351447002,0.07771753405788008,0,0,0
0.5828815054341006,0.17486445163023018,-0.03885876702894004,0,0,0
0.5440227384051606,0.17486445163023018,-0.01942938351447002,0,0,0
0.5634521219196305,0.17486445163023018,0.05828815054341006,0,0,0
0.5634521219196305,0.1942938351447002,0.05828815054341006,0,0,0
0.5245933548906906,0.1942938351447002,0.0971469175723501,0,0,0
0.5245933548906906,0.23315260217364023,0.01942938351447002,0,0,0
0.46630520434728046,0.2720113692025803,0.03885876702894004,0,0,0
0.4080170538038704,0.2914407527170503,0.13600568460129014,0,0,0
0.2720113692025803,0.2914407527170503,0.05828815054341006,0,0,0
0.13600568460129014,0.2914407527170503,0.05828815054341006,0,0,0
0.05828815054341006,0.34972890326046036,0.01942938351447002,0,0,0
0.05828815054341006,0.36915828677493034,-0.03885876702894004,0,0,0
0.07771753405788008,0.2914407527170503,-0.03885876702894004,0,0,0
0.11657630108682011,0.17486445163023018,0.05828815054341006,0,0,0
0.15543506811576016,0.13600568460129014,0.05828815054341006,0,0,0
0.11657630108682011,0.05828815054341006,-0.0,0,0,0
0.13600568460129014,-0.03885876702894004,0.0971469175723501,0,0,0
0.01942938351447002,0.01942938351447002,0.03885876702894004,0,0,0
-0.11657630108682011,0.01942938351447002,-0.0,0,0,0
-0.2720113692025803,0.07771753405788008,-0.0971469175723501,0,0,0
-0.4274464373183404,0.15543506811576016,-0.0971469175723501,0,0,0
-0.5051639713762205,0.1942938351447002,0.01942938351447002,0,0,0
-0.5440227384051606,0.15543506811576016,0.0971469175723501,0,0,0
-0.5245933548906906,0.0971469175723501,0.03885876702894004,0,0,0
-0.5440227384051606,0.05828815054341006,-0.0,0,0,0
-0.5634521219196305,0.03885876702894004,0.03885876702894004,0,0,0
-0.6411696559775106,0.03885876702894004,0.0,0,0,0
-0.6023108889485705,0.05828815054341006,-0.05828815054341006,0,0,0
-0.5634521219196305,0.05828815054341006,-0.05828815054341006,0,0,0
-0.5245933548906906,0.05828815054341006,0.05828815054341006,0,0,0
-0.4857345878617505,0.07771753405788008,0.11657630108682011,0,0,0
-0.3885876702894004,0.11657630108682011,0.15543506811576016,0,0,0
-0.2914407527170503,0.13600568460129014,0.05828815054341006,0,0,0
-0.25258198568811024,0.13600568460129014,-0.01942938351447002,0,0,0
-0.25258198568811024,0.0971469175723501,-0.07771753405788008,0,0,0
-0.2137232186591702,0.07771753405788008,-0.11657630108682011,0,0,0
-0.15543506811576016,0.05828815054341006,-0.15543506811576016,0,0,0
-0.15543506811576016,0.05828815054341006,-0.23315260217364023,0,0,0
-0.11657630108682011,0.05828815054341006,-0.25258198568811024,0,0,0
-0.0971469175723501,0.11657630108682011,-0.23315260217364023,0,0,0
-0.13600568460129014,0.15543506811576016,-0.2914407527170503,0,0,0
-0.15543506811576016,0.17486445163023018,-0.0971469175723501,0,0,0
-0.23315260217364023,0.1942938351447002,-0.25258198568811024,0,0,0
-0.25258198568811024,0.15543506811576016,-0.34972890326046036,0,0,0
-0.25258198568811024,0.17486445163023018,-0.2137232186591702,0,0,0
-0.23315260217364023,0.1942938351447002,-0.11657630108682011,0,0,0
-0.17486445163023018,0.2137232186591702,-0.03885876702894004,0,0,0
-0.11657630108682011,0.1942938351447002,-0.07771753405788008,0,0,0
-0.03885876702894004,0.17486445163023018,-0.07771753405788008,0,0,0
-0.01942938351447002,0.15543506811576016,-0.11657630108682011,0,0,0
0.05828815054341006,0.0971469175723501,-0.05828815054341006,0,0,0
0.0971469175723501,0.03885876702894004,0.0,0,0,0
0.17486445163023018,-0.01942938351447002,-0.03885876702894004,0,0,0
0.03885876702894004,0.07771753405788008,-0.01942938351447002,0,0,0
