0.01853759994400162,0.1112255996640097,-0.0,0,0,0
0.03707519988800324,0.12976319960801133,0.07415039977600647,0,0,0
0.03707519988800324,0.18537599944001618,0.03707519988800324,0,0,0
0.01853759994400162,0.18537599944001618,0.1112255996640097,0,0,0
0.03707519988800324,0.2224511993280194,0.0,0,0,0
-0.0,0.16683839949601453,0.03707519988800324,0,0,0
0.01853759994400162,0.18537599944001618,0.09268799972000809,0,0,0
-0.01853759994400162,0.14830079955201295,0.0,0,0,0
0.0,0.16683839949601453,0.0,0,0,0
0.0,0.14830079955201295,-0.0,0,0,0
0.0,0.12976319960801133,0.01853759994400162,0,0,0
-0.0,0.1112255996640097,-0.01853759994400162,0,0,0
-0.03707519988800324,0.12976319960801133,-0.03707519988800324,0,0,0
-0.01853759994400162,0.16683839949601453,0.03707519988800324,0,0,0
-0.0,0.12976319960801133,0.03707519988800324,0,0,0
-0.01853759994400162,0.14830079955201295,0.0,0,0,0
-0.01853759994400162,0.16683839949601453,-0.07415039977600647,0,0,0
-0.0,0.14830079955201295,-0.01853759994400162,0,0,0
-0.01853759994400162,0.12976319960801133,-0.05561279983200485,0,0,0
0.0,0.14830079955201295,-0.05561279983200485,0,0,0
0.01853759994400162,0.12976319960801133,0.03707519988800324,0,0,0
0.05561279983200485,0.14830079955201295,-0.03707519988800324,0,0,0
0.07415039977600647,0.14830079955201295,0.01853759994400162,0,0,0
0.07415039977600647,0.12976319960801133,0.03707519988800324,0,0,0
0.05561279983200485,0.12976319960801133,0.0,0,0,0
0.07415039977600647,0.14830079955201295,0.0,0,0,0
0.07415039977600647,0.2039135993840178,-0.0,0,0,0
0.05561279983200485,0.2224511993280194,0.01853759994400162,0,0,0
0.03707519988800324,0.2039135993840178,0.01853759994400162,0,0,0
0.01853759994400162,0.16683839949601453,0.0,0,0,0
0.01853759994400162,0.16683839949601453,0.01853759994400162,0,0,0
0.05561279983200485,0.16683839949601453,0.01853759994400162,0,0,0
0.05561279983200485,0.18537599944001618,0.01853759994400162,0,0,0
0.09268799972000809,0.16683839949601453,0.01853759994400162,0,0,0
0.09268799972000809,0.16683839949601453,0.03707519988800324,0,0,0
0.09268799972000809,0.2039135993840178,0.03707519988800324,0,0,0
0.1112255996640097,0.2224511993280194,0.03707519988800324,0,0,0
0.1112255996640097,0.2039135993840178,0.01853759994400162,0,0,0
0.1112255996640097,0.18537599944001618,-0.0,0,0,0
0.14830079955201295,0.16683839949601453,-0.03707519988800324,0,0,0
0.18537599944001618,0.14830079955201295,-0.05561279983200485,0,0,0
0.2224511993280194,0.12976319960801133,-0.07415039977600647,0,0,0
0.25952639921602266,0.1112255996640097,-0.12976319960801133,0,0,0
0.2966015991040259,0.1112255996640097,-0.09268799972000809,0,0,0
0.33367679899202907,0.09268799972000809,-0.16683839949601453,0,0,0
0.35221439893603074,0.07415039977600647,-0.14830079955201295,0,0,0
0.35221439893603074,0.09268799972000809,-0.16683839949601453,0,0,0
0.2966015991040259,0.1112255996640097,-0.12976319960801133,0,0,0
0.25952639921602266,0.1112255996640097,-0.09268799972000809,0,0,0
0.25952639921602266,0.09268799972000809,-0.05561279983200485,0,0,0
0.2224511993280194,0.07415039977600647,-0.03707519988800324,0,0,0
0.18537599944001618,0.03707519988800324,-0.01853759994400162,0,0,0
0.18537599944001618,0.01853759994400162,0.03707519988800324,0,0,0
0.24098879927202102,0.01853759994400162,0.03707519988800324,0,0,0
0.24098879927202102,0.09268799972000809,-0.12976319960801133,0,0,0
0.16683839949601453,0.01853759994400162,0.1112255996640097,0,0,0
0.2039135993840178,0.01853759994400162,0.05561279983200485,0,0,0
0.2039135993840178,0.01853759994400162,0.03707519988800324,0,0,0
0.2224511993280194,-0.03707519988800324,0.12976319960801133,0,0,0
0.25952639921602266,-0.07415039977600647,0.1112255996640097,0,0,0
0.2780639991600242,-0.1112255996640097,0.09268799972000809,0,0,0
0.2780639991600242,-0.1112255996640097,0.07415039977600647,0,0,0
0.2224511993280194,-0.14830079955201295,0.09268799972000809,0,0,0
0.24098879927202102,-0.1112255996640097,0.0,0,0,0
0.18537599944001618,-0.12976319960801133,0.03707519988800324,0,0,0
0.16683839949601453,-0.14830079955201295,0.07415039977600647,0,0,0
0.1112255996640097,-0.14830079955201295,0.05561279983200485,0,0,0
0.07415039977600647,-0.16683839949601453,0.05561279983200485,0,0,0
0.03707519988800324,-0.16683839949601453,0.1112255996640097,0,0,0
-0.03707519988800324,-0.16683839949601453,0.12976319960801133,0,0,0
-0.09268799972000809,-0.14830079955201295,0.16683839949601453,0,0,0
-0.09268799972000809,-0.1112255996640097,0.16683839949601453,0,0,0
-0.14830079955201295,-0.05561279983200485,-0.14830079955201295,0,0,0
-0.14830079955201295,-0.18537599944001618,0.33367679899202907,0,0,0
-0.12976319960801133,-0.16683839949601453,0.2039135993840178,0,0,0
-0.09268799972000809,-0.1112255996640097,0.1112255996640097,0,0,0
-0.09268799972000809,-0.1112255996640097,0.14830079955201295,0,0,0
-0.01853759994400162,-0.12976319960801133,0.16683839949601453,0,0,0
-0.05561279983200485,-0.16683839949601453,0.09268799972000809,0,0,0
-0.12976319960801133,-0.18537599944001618,0.03707519988800324,0,0,0
-0.18537599944001618,-0.12976319960801133,0.2224511993280194,0,0,0
-0.25952639921602266,-0.09268799972000809,0.14830079955201295,0,0,0
-0.33367679899202907,-0.1112255996640097,0.2039135993840178,0,0,0
-0.38928959882403397,-0.07415039977600647,0.05561279983200485,0,0,0
-0.4078271987680356,-0.05561279983200485,0.09268799972000809,0,0,0
-0.4263647987120372,-0.01853759994400162,0.14830079955201295,0,0,0
-0.4449023986560388,0.01853759994400162,0.09268799972000809,0,0,0
-0.4449023986560388,0.01853759994400162,0.14830079955201295,0,0,0
-0.4078271987680356,0.05561279983200485,0.1112255996640097,0,0,0
-0.38928959882403397,0.1112255996640097,0.07415039977600647,0,0,0
-0.37075199888003235,0.07415039977600647,0.09268799972000809,0,0,0
-0.33367679899202907,0.01853759994400162,0.12976319960801133,0,0,0
-0.38928959882403397,0.0,0.12976319960801133,0,0,0
-0.4263647987120372,0.01853759994400162,0.09268799972000809,0,0,0
-0.4263647987120372,0.05561279983200485,0.1112255996640097,0,0,0
-0.4449023986560388,0.07415039977600647,0.07415039977600647,0,0,0
-0.48197759854404204,0.05561279983200485,-0.01853759994400162,0,0,0
-0.4449023986560388,0.1112255996640097,-0.05561279983200485,0,0,0
-0.4263647987120372,0.14830079955201295,-0.1112255996640097,0,0,0
-0.4634399986000404,0.16683839949601453,-0.1112255996640097,0,0,0
-0.4263647987120372,0.14830079955201295,-0.14830079955201295,0,0,0
-0.38928959882403397,0.1112255996640097,-0.14830079955201295,0,0,0
-0.38928959882403397,0.09268799972000809,-0.18537599944001618,0,0,0
-0.4078271987680356,0.09268799972000809,-0.2039135993840178,0,0,0
-0.4634399986000404,0.07415039977600647,-0.12976319960801133,0,0,0
-0.5375903983760468,0.1112255996640097,-0.25952639921602266,0,0,0
-0.6117407981520534,0.18537599944001618,-0.18537599944001618,0,0,0
-0.6117407981520534,0.24098879927202102,-0.14830079955201295,0,0,0
-0.5932031982080518,0.25952639921602266,-0.05561279983200485,0,0,0
-0.5190527984320453,0.25952639921602266,-0.09268799972000809,0,0,0
-0.4449023986560388,0.2224511993280194,-0.05561279983200485,0,0,0
-0.35221439893603074,0.2224511993280194,-0.09268799972000809,0,0,0
-0.2966015991040259,0.2780639991600242,-0.18537599944001618,0,0,0
-0.2966015991040259,0.3151391990480275,-0.2224511993280194,0,0,0
-0.33367679899202907,0.2966015991040259,-0.35221439893603074,0,0,0
-0.4263647987120372,0.2780639991600242,-0.4263647987120372,0,0,0
-0.5375903983760468,0.2966015991040259,-0.4634399986000404,0,0,0
-0.5746655982640502,0.2780639991600242,-0.33367679899202907,0,0,0
-0.5932031982080518,0.33367679899202907,-0.48197759854404204,0,0,0
-0.6673535979840581,0.2966015991040259,-0.2966015991040259,0,0,0
-0.6673535979840581,0.24098879927202102,-0.2224511993280194,0,0,0
-0.5005151984880437,0.2780639991600242,-0.2780639991600242,0,0,0
-0.4263647987120372,0.38928959882403397,-0.2780639991600242,0,0,0
-0.38928959882403397,0.4634399986000404,-0.25952639921602266,0,0,0
-0.35221439893603074,0.48197759854404204,-0.2780639991600242,0,0,0
-0.35221439893603074,0.4263647987120372,-0.2780639991600242,0,0,0
-0.33367679899202907,0.4449023986560388,-0.24098879927202102,0,0,0
-0.37075199888003235,0.4634399986000404,-0.24098879927202102,0,0,0
-0.38928959882403397,0.5190527984320453,-0.18537599944001618,0,0,0
-0.38928959882403397,0.5375903983760468,-0.25952639921602266,0,0,0
-0.38928959882403397,0.4449023986560388,-0.2780639991600242,0,0,0
-0.3151391990480275,0.38928959882403397,-0.3151391990480275,0,0,0
-0.2966015991040259,0.4078271987680356,-0.35221439893603074,0,0,0
-0.3151391990480275,0.4449023986560388,-0.37075199888003235,0,0,0
-0.33367679899202907,0.4449023986560388,-0.33367679899202907,0,0,0
-0.2780639991600242,0.48197759854404204,-0.2966015991040259,0,0,0
-0.3151391990480275,0.5190527984320453,-0.2780639991600242,0,0,0
-0.33367679899202907,0.5746655982640502,-0.25952639921602266,0,0,0
-0.35221439893603074,0.5561279983200484,-0.2780639991600242,0,0,0
-0.37075199888003235,0.5561279983200484,-0.2780639991600242,0,0,0
-0.35221439893603074,0.5932031982080518,-0.33367679899202907,0,0,0
-0.33367679899202907,0.6117407981520534,-0.38928959882403397,0,0,0
-0.2780639991600242,0.5746655982640502,-0.38928959882403397,0,0,0
-0.2039135993840178,0.5375903983760468,-0.4449023986560388,0,0,0
-0.16683839949601453,0.48197759854404204,-0.4449023986560388,0,0,0
-0.09268799972000809,0.48197759854404204,-0.5005151984880437,0,0,0
-0.07415039977600647,0.4449023986560388,-0.5190527984320453,0,0,0
-0.01853759994400162,0.4634399986000404,-0.5561279983200484,0,0,0
-0.09268799972000809,0.48197759854404204,-0.8712671973680759,0,0,0
-0.09268799972000809,0.4634399986000404,-0.5375903983760468,0,0,0
-0.07415039977600647,0.4449023986560388,-0.2966015991040259,0,0,0
-0.12976319960801133,0.4449023986560388,-0.7044287978720615,0,0,0
-0.14830079955201295,0.4449023986560388,-0.6117407981520534,0,0,0
-0.14830079955201295,0.4634399986000404,-0.5375903983760468,0,0,0
-0.16683839949601453,0.4263647987120372,-0.4449023986560388,0,0,0
-0.16683839949601453,0.4449023986560388,-0.5190527984320453,0,0,0
-0.2039135993840178,0.4449023986560388,-0.5746655982640502,0,0,0
-0.14830079955201295,0.48197759854404204,-0.5561279983200484,0,0,0
-0.12976319960801133,0.5190527984320453,-0.4078271987680356,0,0,0
-0.1112255996640097,0.48197759854404204,-0.38928959882403397,0,0,0
-0.05561279983200485,0.48197759854404204,-0.4449023986560388,0,0,0
-0.03707519988800324,0.4634399986000404,-0.5005151984880437,0,0,0
0.0,0.4263647987120372,-0.37075199888003235,0,0,0
0.03707519988800324,0.38928959882403397,-0.35221439893603074,0,0,0
0.05561279983200485,0.38928959882403397,-0.37075199888003235,0,0,0
0.1112255996640097,0.38928959882403397,-0.24098879927202102,0,0,0
0.12976319960801133,0.38928959882403397,-0.3151391990480275,0,0,0
0.12976319960801133,0.38928959882403397,-0.33367679899202907,0,0,0
0.14830079955201295,0.37075199888003235,-0.2966015991040259,0,0,0
0.16683839949601453,0.37075199888003235,-0.3151391990480275,0,0,0
0.18537599944001618,0.38928959882403397,-0.3151391990480275,0,0,0
0.14830079955201295,0.33367679899202907,-0.38928959882403397,0,0,0
0.16683839949601453,0.35221439893603074,-0.35221439893603074,0,0,0
0.14830079955201295,0.33367679899202907,-0.38928959882403397,0,0,0
0.1112255996640097,0.2966015991040259,-0.4078271987680356,0,0,0
0.1112255996640097,0.2224511993280194,-0.35221439893603074,0,0,0
0.14830079955201295,0.2039135993840178,-0.35221439893603074,0,0,0
0.16683839949601453,0.24098879927202102,-0.37075199888003235,0,0,0
0.14830079955201295,0.3151391990480275,-0.4078271987680356,0,0,0
0.24098879927202102,0.14830079955201295,-0.4449023986560388,0,0,0
0.09268799972000809,0.2224511993280194,-0.38928959882403397,0,0,0
0.12976319960801133,0.25952639921602266,-0.4634399986000404,0,0,0
0.09268799972000809,0.2224511993280194,-0.4634399986000404,0,0,0
0.05561279983200485,0.16683839949601453,-0.4078271987680356,0,0,0
0.09268799972000809,0.18537599944001618,-0.37075199888003235,0,0,0
0.12976319960801133,0.2039135993840178,-0.33367679899202907,0,0,0
0.16683839949601453,0.2039135993840178,-0.2780639991600242,0,0,0
0.2039135993840178,0.16683839949601453,-0.2780639991600242,0,0,0
0.24098879927202102,0.14830079955201295,-0.3151391990480275,0,0,0
0.25952639921602266,0.12976319960801133,-0.3151391990480275,0,0,0
0.25952639921602266,0.12976319960801133,-0.24098879927202102,0,0,0
0.18537599944001618,0.12976319960801133,-0.25952639921602266,0,0,0
0.14830079955201295,0.12976319960801133,-0.2966015991040259,0,0,0
0.14830079955201295,0.1112255996640097,-0.2780639991600242,0,0,0
0.16683839949601453,0.1112255996640097,-0.24098879927202102,0,0,0
0.2224511993280194,0.12976319960801133,-0.35221439893603074,0,0,0
0.24098879927202102,0.1112255996640097,-0.2780639991600242,0,0,0
0.2780639991600242,0.07415039977600647,-0.07415039977600647,0,0,0
0.2780639991600242,0.05561279983200485,-0.2039135993840178,0,0,0
0.25952639921602266,0.09268799972000809,-0.25952639921602266,0,0,0
0.2966015991040259,0.09268799972000809,-0.07415039977600647,0,0,0
0.3151391990480275,0.07415039977600647,-0.24098879927202102,0,0,0
0.2966015991040259,0.07415039977600647,-0.2780639991600242,0,0,0
0.2780639991600242,0.1112255996640097,-0.2966015991040259,0,0,0
0.2224511993280194,0.1112255996640097,-0.4634399986000404,0,0,0
0.24098879927202102,0.05561279983200485,-0.4078271987680356,0,0,0
0.2780639991600242,0.01853759994400162,-0.5005151984880437,0,0,0
0.24098879927202102,0.0,-0.4263647987120372,0,0,0
0.25952639921602266,0.01853759994400162,-0.38928959882403397,0,0,0
0.25952639921602266,0.03707519988800324,-0.35221439893603074,0,0,0
0.2966015991040259,-0.03707519988800324,-0.2966015991040259,0,0,0
0.2780639991600242,-0.07415039977600647,-0.2224511993280194,0,0,0
0.35221439893603074,-0.03707519988800324,-0.2039135993840178,0,0,0
0.37075199888003235,-0.0,-0.18537599944001618,0,0,0
0.37075199888003235,0.03707519988800324,-0.2224511993280194,0,0,0
0.37075199888003235,0.03707519988800324,-0.2966015991040259,0,0,0
0.33367679899202907,0.01853759994400162,-0.38928959882403397,0,0,0
0.2780639991600242,-0.0,-0.2780639991600242,0,0,0
0.2966015991040259,-0.01853759994400162,-0.4449023986560388,0,0,0
0.2966015991040259,-0.18537599944001618,-0.4449023986560388,0,0,0
0.2224511993280194,-0.14830079955201295,-0.33367679899202907,0,0,0
0.24098879927202102,-0.2224511993280194,-0.3151391990480275,0,0,0
0.2224511993280194,-0.16683839949601453,-0.2224511993280194,0,0,0
0.24098879927202102,-0.1112255996640097,-0.2966015991040259,0,0,0
0.2780639991600242,-0.09268799972000809,-0.25952639921602266,0,0,0
0.33367679899202907,-0.07415039977600647,-0.2780639991600242,0,0,0
0.2966015991040259,-0.01853759994400162,-0.2966015991040259,0,0,0
0.24098879927202102,-0.03707519988800324,-0.2780639991600242,0,0,0
0.2966015991040259,-0.09268799972000809,-0.24098879927202102,0,0,0
0.14830079955201295,-0.05561279983200485,-0.18537599944001618,0,0,0
0.07415039977600647,-0.03707519988800324,-0.2780639991600242,0,0,0
0.01853759994400162,-0.07415039977600647,-0.07415039977600647,0,0,0
0.01853759994400162,-0.09268799972000809,-0.1112255996640097,0,0,0
0.05561279983200485,-0.07415039977600647,-0.2224511993280194,0,0,0
0.09268799972000809,-0.07415039977600647,-0.2224511993280194,0,0,0
0.12976319960801133,-0.07415039977600647,-0.4634399986000404,0,0,0
0.16683839949601453,-0.14830079955201295,-0.2780639991600242,0,0,0
0.18537599944001618,-0.16683839949601453,-0.35221439893603074,0,0,0
0.24098879927202102,-0.16683839949601453,-0.37075199888003235,0,0,0
0.18537599944001618,-0.12976319960801133,-0.25952639921602266,0,0,0
0.14830079955201295,-0.12976319960801133,-0.2224511993280194,0,0,0
0.1112255996640097,-0.12976319960801133,-0.14830079955201295,0,0,0
0.03707519988800324,-0.16683839949601453,-0.03707519988800324,0,0,0
-0.03707519988800324,-0.09268799972000809,-0.16683839949601453,0,0,0
-0.09268799972000809,-0.1112255996640097,0.07415039977600647,0,0,0
-0.12976319960801133,-0.07415039977600647,0.0,0,0,0
-0.1112255996640097,-0.0,0.05561279983200485,0,0,0
-0.05561279983200485,0.03707519988800324,0.05561279983200485,0,0,0
0.01853759994400162,0.03707519988800324,0.1112255996640097,0,0,0
0.03707519988800324,0.03707519988800324,0.12976319960801133,0,0,0
0.05561279983200485,-0.01853759994400162,0.16683839949601453,0,0,0
0.05561279983200485,-0.03707519988800324,-0.01853759994400162,0,0,0
0.01853759994400162,-0.05561279983200485,0.16683839949601453,0,0,0
-0.05561279983200485,-0.05561279983200485,-0.01853759994400162,0,0,0
-0.09268799972000809,-0.09268799972000809,-0.0,0,0,0
-0.16683839949601453,-0.1112255996640097,-0.03707519988800324,0,0,0
-0.16683839949601453,-0.09268799972000809,-0.14830079955201295,0,0,0
-0.2039135993840178,-0.01853759994400162,-0.2039135993840178,0,0,0
-0.2224511993280194,-0.0,-0.2224511993280194,0,0,0
-0.25952639921602266,-0.01853759994400162,-0.25952639921602266,0,0,0
-0.2780639991600242,0.01853759994400162,-0.24098879927202102,0,0,0
-0.2224511993280194,0.07415039977600647,-0.2224511993280194,0,0,0
-0.2039135993840178,0.12976319960801133,-0.2966015991040259,0,0,0
-0.24098879927202102,0.09268799972000809,-0.14830079955201295,0,0,0
-0.24098879927202102,0.09268799972000809,-0.09268799972000809,0,0,0
-0.2224511993280194,0.14830079955201295,-0.12976319960801133,0,0,0
-0.2039135993840178,0.16683839949601453,-0.1112255996640097,0,0,0
-0.14830079955201295,0.18537599944001618,-0.09268799972000809,0,0,0
-0.16683839949601453,0.2039135993840178,-0.1112255996640097,0,0,0
-0.18537599944001618,0.2039135993840178,-0.09268799972000809,0,0,0
-0.18537599944001618,0.2224511993280194,-0.05561279983200485,0,0,0
-0.18537599944001618,0.25952639921602266,-0.03707519988800324,0,0,0
-0.14830079955201295,0.2780639991600242,-0.05561279983200485,0,0,0
-0.12976319960801133,0.25952639921602266,-0.05561279983200485,0,0,0
-0.1112255996640097,0.2780639991600242,-0.09268799972000809,0,0,0
-0.09268799972000809,0.2966015991040259,-0.12976319960801133,0,0,0
-0.09268799972000809,0.2780639991600242,-0.14830079955201295,0,0,0
-0.07415039977600647,0.2224511993280194,-0.12976319960801133,0,0,0
-0.09268799972000809,0.18537599944001618,-0.14830079955201295,0,0,0
-0.09268799972000809,0.18537599944001618,-0.12976319960801133,0,0,0
-0.07415039977600647,0.16683839949601453,-0.1112255996640097,0,0,0
-0.01853759994400162,0.2039135993840178,-0.01853759994400162,0,0,0
