0.0,0.018133923944705345,-0.0,0,0,0
0.0,0.018133923944705345,-0.0,0,0,0
-0.018133923944705345,0.018133923944705345,-0.018133923944705345,0,0,0
-0.018133923944705345,0.018133923944705345,-0.018133923944705345,0,0,0
-0.018133923944705345,0.018133923944705345,-0.018133923944705345,0,0,0
-0.018133923944705345,0.0,-0.018133923944705345,0,0,0
-0.018133923944705345,0.0,-0.018133923944705345,0,0,0
0.0,0.018133923944705345,-0.0,0,0,0
0.0,0.018133923944705345,0.0,0,0,0
0.0,0.018133923944705345,0.0,0,0,0
0.018133923944705345,0.0,-0.0,0,0,0
0.0,0.0,-0.0,0,0,0
0.0,-0.0,-0.0,0,0,0
0.0,-0.0,-0.0,0,0,0
-0.018133923944705345,0.018133923944705345,-0.018133923944705345,0,0,0
-0.018133923944705345,0.018133923944705345,-0.018133923944705345,0,0,0
-0.018133923944705345,0.03626784788941069,-0.018133923944705345,0,0,0
-0.03626784788941069,0.03626784788941069,-0.03626784788941069,0,0,0
-0.03626784788941069,0.03626784788941069,-0.03626784788941069,0,0,0
-0.018133923944705345,0.018133923944705345,-0.03626784788941069,0,0,0
-0.0,0.018133923944705345,-0.054401771834116035,0,0,0
0.0,-0.0,-0.03626784788941069,0,0,0
0.018133923944705345,0.0,-0.03626784788941069,0,0,0
0.018133923944705345,0.0,-0.018133923944705345,0,0,0
0.018133923944705345,0.0,-0.018133923944705345,0,0,0
0.0,0.0,-0.018133923944705345,0,0,0
0.018133923944705345,0.03626784788941069,-0.018133923944705345,0,0,0
0.0,0.03626784788941069,-0.018133923944705345,0,0,0
-0.0,0.03626784788941069,-0.03626784788941069,0,0,0
-0.0,0.03626784788941069,-0.03626784788941069,0,0,0
0.018133923944705345,0.054401771834116035,-0.03626784788941069,0,0,0
0.03626784788941069,0.054401771834116035,-0.03626784788941069,0,0,0
0.054401771834116035,0.03626784788941069,-0.03626784788941069,0,0,0
0.07253569577882138,0.03626784788941069,-0.054401771834116035,0,0,0
0.09066961972352673,0.054401771834116035,-0.09066961972352673,0,0,0
0.10880354366823207,0.054401771834116035,-0.07253569577882138,0,0,0
0.14507139155764276,0.03626784788941069,-0.07253569577882138,0,0,0
0.14507139155764276,0.03626784788941069,-0.07253569577882138,0,0,0
0.14507139155764276,0.03626784788941069,-0.07253569577882138,0,0,0
0.1632053155023481,0.054401771834116035,-0.054401771834116035,0,0,0
0.1632053155023481,0.054401771834116035,-0.054401771834116035,0,0,0
0.18133923944705346,0.07253569577882138,-0.054401771834116035,0,0,0
0.1994731633917588,0.07253569577882138,-0.054401771834116035,0,0,0
0.23574101128116948,0.07253569577882138,-0.03626784788941069,0,0,0
0.25387493522587484,0.09066961972352673,-0.03626784788941069,0,0,0
0.27200885917058015,0.09066961972352673,-0.018133923944705345,0,0,0
0.3082767070599909,0.09066961972352673,-0.018133923944705345,0,0,0
0.3082767070599909,0.09066961972352673,-0.03626784788941069,0,0,0
0.3082767070599909,0.09066961972352673,-0.03626784788941069,0,0,0
0.3082767070599909,0.09066961972352673,-0.03626784788941069,0,0,0
0.2901427831152855,0.07253569577882138,-0.054401771834116035,0,0,0
0.2901427831152855,0.03626784788941069,-0.07253569577882138,0,0,0
0.2901427831152855,0.018133923944705345,-0.09066961972352673,0,0,0
0.3264106310046962,0.0,-0.07253569577882138,0,0,0
0.3626784788941069,-0.018133923944705345,-0.09066961972352673,0,0,0
0.38081240283881224,-0.054401771834116035,-0.07253569577882138,0,0,0
0.41708025072822297,-0.10880354366823207,-0.054401771834116035,0,0,0
0.41708025072822297,-0.10880354366823207,-0.07253569577882138,0,0,0
0.41708025072822297,-0.12693746761293742,-0.03626784788941069,0,0,0
0.41708025072822297,-0.14507139155764276,-0.03626784788941069,0,0,0
0.3989463267835176,-0.1632053155023481,-0.018133923944705345,0,0,0
0.34454455494940156,-0.18133923944705346,-0.0,0,0,0
0.34454455494940156,-0.18133923944705346,-0.0,0,0,0
0.3082767070599909,-0.1632053155023481,-0.0,0,0,0
0.27200885917058015,-0.1994731633917588,0.03626784788941069,0,0,0
0.23574101128116948,-0.21760708733646414,0.03626784788941069,0,0,0
0.1994731633917588,-0.21760708733646414,0.054401771834116035,0,0,0
0.18133923944705346,-0.23574101128116948,0.03626784788941069,0,0,0
0.14507139155764276,-0.25387493522587484,0.07253569577882138,0,0,0
0.12693746761293742,-0.25387493522587484,0.07253569577882138,0,0,0
0.10880354366823207,-0.2901427831152855,0.07253569577882138,0,0,0
0.07253569577882138,-0.3082767070599909,0.09066961972352673,0,0,0
0.018133923944705345,-0.34454455494940156,0.09066961972352673,0,0,0
-0.018133923944705345,-0.34454455494940156,0.10880354366823207,0,0,0
-0.03626784788941069,-0.3626784788941069,0.1632053155023481,0,0,0
-0.03626784788941069,-0.3626784788941069,0.14507139155764276,0,0,0
-0.07253569577882138,-0.34454455494940156,0.18133923944705346,0,0,0
-0.09066961972352673,-0.34454455494940156,0.18133923944705346,0,0,0
-0.10880354366823207,-0.34454455494940156,0.18133923944705346,0,0,0
-0.10880354366823207,-0.3264106310046962,0.1994731633917588,0,0,0
-0.1632053155023481,-0.3264106310046962,0.1994731633917588,0,0,0
-0.1994731633917588,-0.3626784788941069,0.18133923944705346,0,0,0
-0.25387493522587484,-0.3989463267835176,0.1632053155023481,0,0,0
-0.27200885917058015,-0.41708025072822297,0.14507139155764276,0,0,0
-0.2901427831152855,-0.38081240283881224,0.1632053155023481,0,0,0
-0.25387493522587484,-0.34454455494940156,0.21760708733646414,0,0,0
-0.25387493522587484,-0.34454455494940156,0.23574101128116948,0,0,0
-0.25387493522587484,-0.3626784788941069,0.27200885917058015,0,0,0
-0.27200885917058015,-0.34454455494940156,0.2901427831152855,0,0,0
-0.2901427831152855,-0.3626784788941069,0.3082767070599909,0,0,0
-0.3082767070599909,-0.38081240283881224,0.2901427831152855,0,0,0
-0.3264106310046962,-0.3626784788941069,0.23574101128116948,0,0,0
-0.34454455494940156,-0.2901427831152855,0.1994731633917588,0,0,0
-0.34454455494940156,-0.25387493522587484,0.14507139155764276,0,0,0
-0.34454455494940156,-0.25387493522587484,0.09066961972352673,0,0,0
-0.34454455494940156,-0.25387493522587484,0.054401771834116035,0,0,0
-0.3082767070599909,-0.21760708733646414,0.03626784788941069,0,0,0
-0.2901427831152855,-0.1994731633917588,0.07253569577882138,0,0,0
-0.25387493522587484,-0.1994731633917588,0.07253569577882138,0,0,0
-0.27200885917058015,-0.1994731633917588,0.09066961972352673,0,0,0
-0.3082767070599909,-0.1632053155023481,0.10880354366823207,0,0,0
-0.3264106310046962,-0.10880354366823207,0.07253569577882138,0,0,0
-0.3626784788941069,-0.054401771834116035,0.054401771834116035,0,0,0
-0.38081240283881224,-0.03626784788941069,0.018133923944705345,0,0,0
-0.3989463267835176,-0.03626784788941069,-0.03626784788941069,0,0,0
-0.3626784788941069,-0.0,-0.054401771834116035,0,0,0
-0.34454455494940156,0.03626784788941069,-0.10880354366823207,0,0,0
-0.3626784788941069,0.054401771834116035,-0.12693746761293742,0,0,0
-0.41708025072822297,0.054401771834116035,-0.14507139155764276,0,0,0
-0.4352141746729283,0.03626784788941069,-0.1632053155023481,0,0,0
-0.3626784788941069,0.018133923944705345,-0.18133923944705346,0,0,0
-0.3264106310046962,0.018133923944705345,-0.18133923944705346,0,0,0
-0.2901427831152855,0.0,-0.1632053155023481,0,0,0
-0.27200885917058015,0.018133923944705345,-0.1632053155023481,0,0,0
-0.27200885917058015,0.03626784788941069,-0.14507139155764276,0,0,0
-0.3264106310046962,0.09066961972352673,-0.1632053155023481,0,0,0
-0.38081240283881224,0.12693746761293742,-0.14507139155764276,0,0,0
-0.4352141746729283,0.14507139155764276,-0.10880354366823207,0,0,0
-0.4533480986176336,0.14507139155764276,-0.07253569577882138,0,0,0
-0.47148202256233895,0.1994731633917588,-0.054401771834116035,0,0,0
-0.41708025072822297,0.25387493522587484,-0.03626784788941069,0,0,0
-0.3626784788941069,0.2901427831152855,-0.0,0,0,0
-0.34454455494940156,0.3082767070599909,-0.018133923944705345,0,0,0
-0.3264106310046962,0.2901427831152855,-0.03626784788941069,0,0,0
-0.23574101128116948,0.27200885917058015,-0.054401771834116035,0,0,0
-0.23574101128116948,0.2901427831152855,-0.12693746761293742,0,0,0
-0.3082767070599909,0.2901427831152855,-0.1632053155023481,0,0,0
-0.41708025072822297,0.2901427831152855,-0.18133923944705346,0,0,0
-0.5077498704517497,0.3082767070599909,-0.1994731633917588,0,0,0
-0.5440177183411603,0.3082767070599909,-0.1994731633917588,0,0,0
-0.5984194901752764,0.3082767070599909,-0.18133923944705346,0,0,0
-0.580285566230571,0.2901427831152855,-0.1632053155023481,0,0,0
-0.5440177183411603,0.27200885917058015,-0.12693746761293742,0,0,0
-0.5077498704517497,0.27200885917058015,-0.09066961972352673,0,0,0
-0.4533480986176336,0.27200885917058015,-0.09066961972352673,0,0,0
-0.38081240283881224,0.34454455494940156,-0.14507139155764276,0,0,0
-0.34454455494940156,0.34454455494940156,-0.18133923944705346,0,0,0
-0.3626784788941069,0.3082767070599909,-0.21760708733646414,0,0,0
-0.38081240283881224,0.3264106310046962,-0.25387493522587484,0,0,0
-0.3989463267835176,0.3626784788941069,-0.27200885917058015,0,0,0
-0.41708025072822297,0.38081240283881224,-0.2901427831152855,0,0,0
-0.4352141746729283,0.3626784788941069,-0.25387493522587484,0,0,0
-0.47148202256233895,0.3626784788941069,-0.23574101128116948,0,0,0
-0.47148202256233895,0.38081240283881224,-0.1994731633917588,0,0,0
-0.47148202256233895,0.38081240283881224,-0.18133923944705346,0,0,0
-0.41708025072822297,0.3989463267835176,-0.1994731633917588,0,0,0
-0.38081240283881224,0.3989463267835176,-0.21760708733646414,0,0,0
-0.34454455494940156,0.41708025072822297,-0.23574101128116948,0,0,0
-0.3264106310046962,0.4352141746729283,-0.27200885917058015,0,0,0
-0.34454455494940156,0.4352141746729283,-0.3082767070599909,0,0,0
-0.38081240283881224,0.4533480986176336,-0.34454455494940156,0,0,0
-0.3989463267835176,0.4896159465070443,-0.34454455494940156,0,0,0
-0.3989463267835176,0.4896159465070443,-0.3264106310046962,0,0,0
-0.3989463267835176,0.4896159465070443,-0.3264106310046962,0,0,0
-0.38081240283881224,0.47148202256233895,-0.3264106310046962,0,0,0
-0.3264106310046962,0.4533480986176336,-0.3082767070599909,0,0,0
-0.25387493522587484,0.41708025072822297,-0.3082767070599909,0,0,0
-0.18133923944705346,0.3989463267835176,-0.3082767070599909,0,0,0
-0.1632053155023481,0.3989463267835176,-0.3264106310046962,0,0,0
-0.12693746761293742,0.38081240283881224,-0.3264106310046962,0,0,0
-0.07253569577882138,0.3989463267835176,-0.3626784788941069,0,0,0
-0.03626784788941069,0.4352141746729283,-0.3626784788941069,0,0,0
-0.018133923944705345,0.4352141746729283,-0.38081240283881224,0,0,0
0.018133923944705345,0.4533480986176336,-0.3626784788941069,0,0,0
0.054401771834116035,0.4352141746729283,-0.38081240283881224,0,0,0
0.054401771834116035,0.4533480986176336,-0.38081240283881224,0,0,0
0.03626784788941069,0.4896159465070443,-0.3989463267835176,0,0,0
-0.0,0.47148202256233895,-0.38081240283881224,0,0,0
-0.018133923944705345,0.4533480986176336,-0.3989463267835176,0,0,0
-0.0,0.41708025072822297,-0.4352141746729283,0,0,0
0.018133923944705345,0.38081240283881224,-0.4533480986176336,0,0,0
0.018133923944705345,0.3626784788941069,-0.47148202256233895,0,0,0
0.054401771834116035,0.34454455494940156,-0.47148202256233895,0,0,0
0.10880354366823207,0.34454455494940156,-0.47148202256233895,0,0,0
0.14507139155764276,0.3626784788941069,-0.4352141746729283,0,0,0
0.21760708733646414,0.34454455494940156,-0.4533480986176336,0,0,0
0.25387493522587484,0.3082767070599909,-0.4352141746729283,0,0,0
0.27200885917058015,0.3082767070599909,-0.4352141746729283,0,0,0
0.25387493522587484,0.3264106310046962,-0.3989463267835176,0,0,0
0.23574101128116948,0.3626784788941069,-0.38081240283881224,0,0,0
0.12693746761293742,0.38081240283881224,-0.34454455494940156,0,0,0
0.018133923944705345,0.38081240283881224,-0.3264106310046962,0,0,0
-0.03626784788941069,0.38081240283881224,-0.2901427831152855,0,0,0
0.0,0.3989463267835176,-0.27200885917058015,0,0,0
0.03626784788941069,0.38081240283881224,-0.25387493522587484,0,0,0
0.07253569577882138,0.3264106310046962,-0.23574101128116948,0,0,0
0.14507139155764276,0.2901427831152855,-0.25387493522587484,0,0,0
0.23574101128116948,0.25387493522587484,-0.27200885917058015,0,0,0
0.27200885917058015,0.1994731633917588,-0.2901427831152855,0,0,0
0.2901427831152855,0.18133923944705346,-0.27200885917058015,0,0,0
0.27200885917058015,0.21760708733646414,-0.2901427831152855,0,0,0
0.1632053155023481,0.27200885917058015,-0.27200885917058015,0,0,0
0.03626784788941069,0.2901427831152855,-0.23574101128116948,0,0,0
-0.03626784788941069,0.3082767070599909,-0.18133923944705346,0,0,0
-0.07253569577882138,0.34454455494940156,-0.14507139155764276,0,0,0
-0.07253569577882138,0.34454455494940156,-0.12693746761293742,0,0,0
0.018133923944705345,0.3082767070599909,-0.10880354366823207,0,0,0
0.10880354366823207,0.23574101128116948,-0.14507139155764276,0,0,0
0.23574101128116948,0.1632053155023481,-0.18133923944705346,0,0,0
0.27200885917058015,0.1632053155023481,-0.21760708733646414,0,0,0
0.2901427831152855,0.10880354366823207,-0.23574101128116948,0,0,0
0.3264106310046962,0.12693746761293742,-0.25387493522587484,0,0,0
0.3082767070599909,0.18133923944705346,-0.25387493522587484,0,0,0
0.25387493522587484,0.23574101128116948,-0.23574101128116948,0,0,0
0.25387493522587484,0.27200885917058015,-0.1994731633917588,0,0,0
0.2901427831152855,0.23574101128116948,-0.18133923944705346,0,0,0
0.3264106310046962,0.1632053155023481,-0.12693746761293742,0,0,0
0.34454455494940156,0.10880354366823207,-0.054401771834116035,0,0,0
0.47148202256233895,0.03626784788941069,-0.0,0,0,0
0.5258837943964549,-0.03626784788941069,-0.0,0,0,0
0.5621516422858657,-0.1632053155023481,0.03626784788941069,0,0,0
0.634687338064687,-0.21760708733646414,0.03626784788941069,0,0,0
0.6890891098988031,-0.1632053155023481,0.018133923944705345,0,0,0
0.7072230338435085,-0.1632053155023481,0.018133923944705345,0,0,0
0.6890891098988031,-0.14507139155764276,0.0,0,0,0
0.6709551859540978,-0.1632053155023481,-0.0,0,0,0
0.7072230338435085,-0.21760708733646414,0.03626784788941069,0,0,0
0.7072230338435085,-0.27200885917058015,0.07253569577882138,0,0,0
0.6709551859540978,-0.3264106310046962,0.14507139155764276,0,0,0
0.5258837943964549,-0.4352141746729283,0.1632053155023481,0,0,0
0.5984194901752764,-0.41708025072822297,0.25387493522587484,0,0,0
0.5621516422858657,-0.41708025072822297,0.23574101128116948,0,0,0
0.6528212620093924,-0.41708025072822297,0.21760708733646414,0,0,0
0.7616248056776245,-0.38081240283881224,0.25387493522587484,0,0,0
0.8341605014564459,-0.3989463267835176,0.27200885917058015,0,0,0
0.8522944254011512,-0.4352141746729283,0.2901427831152855,0,0,0
0.7797587296223298,-0.41708025072822297,0.1994731633917588,0,0,0
0.7253569577882139,-0.5077498704517497,0.3082767070599909,0,0,0
0.6165534141199818,-0.5440177183411603,0.25387493522587484,0,0,0
0.580285566230571,-0.5621516422858657,0.2901427831152855,0,0,0
0.5440177183411603,-0.5440177183411603,0.3626784788941069,0,0,0
0.5258837943964549,-0.5258837943964549,0.3989463267835176,0,0,0
0.4896159465070443,-0.5077498704517497,0.3989463267835176,0,0,0
0.4352141746729283,-0.5077498704517497,0.38081240283881224,0,0,0
0.38081240283881224,-0.5077498704517497,0.3264106310046962,0,0,0
0.3082767070599909,-0.47148202256233895,0.25387493522587484,0,0,0
0.2901427831152855,-0.4352141746729283,0.1994731633917588,0,0,0
0.25387493522587484,-0.4352141746729283,0.14507139155764276,0,0,0
0.25387493522587484,-0.4352141746729283,0.12693746761293742,0,0,0
0.25387493522587484,-0.4533480986176336,0.10880354366823207,0,0,0
0.25387493522587484,-0.41708025072822297,0.10880354366823207,0,0,0
0.2901427831152855,-0.4533480986176336,0.14507139155764276,0,0,0
0.27200885917058015,-0.4533480986176336,0.1632053155023481,0,0,0
0.3082767070599909,-0.4352141746729283,0.1994731633917588,0,0,0
0.27200885917058015,-0.3989463267835176,0.18133923944705346,0,0,0
0.1632053155023481,-0.3989463267835176,0.14507139155764276,0,0,0
0.054401771834116035,-0.3626784788941069,0.10880354366823207,0,0,0
-0.018133923944705345,-0.34454455494940156,0.07253569577882138,0,0,0
-0.09066961972352673,-0.2901427831152855,0.054401771834116035,0,0,0
-0.21760708733646414,-0.2901427831152855,0.03626784788941069,0,0,0
-0.3082767070599909,-0.27200885917058015,0.03626784788941069,0,0,0
-0.3989463267835176,-0.23574101128116948,0.054401771834116035,0,0,0
-0.47148202256233895,-0.21760708733646414,0.10880354366823207,0,0,0
-0.47148202256233895,-0.14507139155764276,0.1632053155023481,0,0,0
-0.41708025072822297,-0.10880354366823207,0.1994731633917588,0,0,0
-0.3626784788941069,-0.09066961972352673,0.18133923944705346,0,0,0
-0.34454455494940156,-0.07253569577882138,0.1632053155023481,0,0,0
-0.3082767070599909,-0.03626784788941069,0.12693746761293742,0,0,0
-0.3264106310046962,-0.054401771834116035,0.09066961972352673,0,0,0
-0.3082767070599909,-0.03626784788941069,0.018133923944705345,0,0,0
-0.3264106310046962,0.018133923944705345,0.07253569577882138,0,0,0
-0.3082767070599909,0.0,-0.03626784788941069,0,0,0
-0.3082767070599909,0.07253569577882138,0.018133923944705345,0,0,0
-0.34454455494940156,0.07253569577882138,-0.07253569577882138,0,0,0
-0.27200885917058015,0.10880354366823207,-0.10880354366823207,0,0,0
-0.1994731633917588,0.12693746761293742,-0.12693746761293742,0,0,0
-0.14507139155764276,0.14507139155764276,-0.09066961972352673,0,0,0
-0.10880354366823207,0.10880354366823207,0.23574101128116948,0,0,0
-0.03626784788941069,0.1632053155023481,-0.054401771834116035,0,0,0
-0.14507139155764276,0.18133923944705346,-0.12693746761293742,0,0,0
-0.14507139155764276,0.21760708733646414,-0.25387493522587484,0,0,0
